# .PCD v0.7 - Point Cloud Data file format
VERSION 0.7
FIELDS x y z
SIZE 4 4 4
TYPE F F F
COUNT 1 1 1
WIDTH 1469
HEIGHT 1
VIEWPOINT 0 0 0 1 0 0 0
POINTS 1469
DATA ascii
-3.8933601 -2.4024725 0.41667122
-3.8006213 -2.4131911 0.42722258
-3.7288301 -2.4151971 0.43475926
-3.3247726 -2.4469414 0.40560278
-3.2457776 -2.4375291 0.41241276
-3.158947 -2.432373 0.42058477
-3.0847557 -2.4126546 0.42630515
-3.0151877 -2.4085143 0.43311512
-2.4854333 -2.4660022 0.40151191
-2.4297647 -2.4358411 0.40461409
-2.3414769 -2.4270096 0.412148
-2.2702157 -2.4278498 0.41879556
-2.2186153 -2.4144368 0.42278409
-9.9450722 -2.3205974 0.42408773
-9.8331947 -2.3274946 0.41555822
-9.65382 -2.355325 0.40259334
-8.9008093 -2.3242152 0.44804475
-8.8420811 -2.3388882 0.44316989
-8.762907 -2.3404031 0.43563601
-8.6908846 -2.3446009 0.42898846
-8.5921249 -2.3307438 0.41879556
-8.5121193 -2.3493934 0.41236958
-8.4588146 -2.3838105 0.40948898
-8.3708153 -2.3932116 0.40195513
-8.1218204 -2.327517 0.46253428
-8.0571556 -2.3449581 0.45681387
-7.948771 -2.3270283 0.44346631
-7.8880596 -2.3431652 0.43829075
-7.8137789 -2.368232 0.43257034
-7.7306628 -2.3831806 0.42521554
-7.6436362 -2.3915095 0.41704357
-7.5451217 -2.3211589 0.47674939
-7.4634695 -2.3274131 0.46770537
-7.4228992 -2.3295865 0.46318334
-7.3277869 -2.337888 0.4531703
-7.2497134 -2.3599761 0.44703329
-7.1614461 -2.3676195 0.43831229
-6.8963556 -2.3393927 0.47352087
-6.8360825 -2.3447208 0.46754116
-6.7689319 -2.3604958 0.4626826
-6.6861415 -2.372653 0.45595542
-6.6079865 -2.3883696 0.45072317
-6.5238075 -2.3897235 0.44299933
-6.4377885 -2.3819969 0.4340297
-6.3636308 -2.3643925 0.454395
-6.2771697 -2.3476703 0.45001298
-6.1780977 -2.3391957 0.434908
-6.120419 -2.342308 0.46000114
-6.0419579 -2.3514469 0.45639417
-5.9673023 -2.3708994 0.45575762
-5.8889441 -2.37412 0.45215058
-5.7996154 -2.3717234 0.44748271
-5.7175689 -2.3825624 0.44670475
-5.6372218 -2.3752348 0.44274405
-5.5629845 -2.384778 0.44323915
-5.4668059 -2.3827717 0.44161245
-5.3922396 -2.3844409 0.44175389
-5.3177361 -2.3822048 0.44161239
-5.2437048 -2.3735428 0.44069302
-5.1566715 -2.384614 0.44493657
-5.0771484 -2.3606195 0.44217825
-5.0017314 -2.3607132 0.44506389
-4.9144325 -2.3849792 0.45427239
-4.8393235 -2.3686912 0.45490894
-4.7571878 -2.368597 0.46000117
-4.6750102 -2.3725128 0.46650794
-4.6037645 -2.3693676 0.47131729
-4.5145946 -2.3553526 0.4759852
-4.4624395 -2.3496599 0.47952151
-4.3313093 -2.3985686 0.43951112
-4.2520814 -2.3913908 0.44549087
-4.1269131 -2.3832779 0.45632911
-4.0498734 -2.3857574 0.46467581
-3.952594 -2.3678689 0.47239971
-3.8627369 -2.335403 0.47763199
-3.7299318 -2.3702011 0.42894524
-3.6372433 -2.3934045 0.44164994
-3.5675883 -2.3865283 0.44832531
-3.4911041 -2.3840084 0.45650801
-3.3917832 -2.3806725 0.46738237
-3.3213153 -2.3656061 0.47384238
-3.2655234 -2.3558095 0.4793334
-2.990736 -2.3859863 0.43365994
-2.9176562 -2.3817077 0.44101471
-2.8285947 -2.3880708 0.45109349
-2.7634342 -2.35128 0.4550887
-2.6621509 -2.3391635 0.46525827
-2.5930192 -2.3448179 0.47343025
-2.5462518 -2.3334067 0.47778866
-2.1870995 -2.3873956 0.42411357
-1.7763116 -2.340492 0.4608967
-1.6890879 -2.3381066 0.46931693
-12.452027 -2.2475014 0.43847406
-12.33181 -2.2932248 0.43224096
-10.640912 -2.240979 0.47697076
-10.52746 -2.2609608 0.46844125
-10.391857 -2.2701929 0.45786464
-10.264044 -2.279741 0.44797039
-10.147657 -2.2913504 0.4390997
-10.05361 -2.3100202 0.43227607
-9.6745872 -2.3106687 0.40259334
-9.1964388 -2.2860522 0.47507814
-9.0905275 -2.2973044 0.46518067
-8.9735355 -2.3161931 0.4546923
-8.2710838 -2.3011873 0.47724384
-8.1914606 -2.3117695 0.46907187
-7.4984555 -2.3192031 0.47093537
-7.343421 -2.2920647 0.4496173
-6.9238482 -2.3109968 0.47239971
-6.3812714 -2.3198464 0.47782409
-6.211174 -2.3111763 0.44181123
-5.0772562 -2.2776065 0.4511362
-3.9120889 -2.3138072 0.46866235
-1.6407411 -2.2887301 0.47153276
-12.877873 -2.1950486 0.46244746
-12.602966 -2.2074499 0.44662502
-7.007556 -2.1702096 0.46193513
-2.1680117 -2.1696458 0.41347751
-13.056126 -2.1541874 0.4722766
-6.819149 -2.1182559 0.43128896
-6.8346 -2.0353999 0.43574584
-2.36498 -2.0185161 0.47615424
-6.8466749 -1.969263 0.47145876
-2.3651361 -1.97728 0.47343025
-6.5177269 -2.326853 0.49310088
-6.4362655 -2.3252928 0.48433086
-5.7813034 -2.3281155 0.49264407
-5.7058973 -2.3235629 0.48836851
-5.6541042 -2.3308513 0.48836851
-5.5603809 -2.3386199 0.48789346
-5.4730124 -2.3326912 0.48520139
-5.3934045 -2.3343813 0.48528057
-5.3206024 -2.3351347 0.48583484
-5.2445893 -2.3279393 0.48520139
-5.1651392 -2.3224008 0.48575562
-5.1114831 -2.3301327 0.48931864
-4.9821148 -2.3347242 0.49596956
-4.9397616 -2.3293219 0.49691969
-4.8738232 -2.3289089 0.5007202
-4.6242385 -2.3203943 0.51782262
-4.4199858 -2.3574781 0.48503816
-4.3614163 -2.3431942 0.48800862
-4.2827325 -2.3391244 0.4953641
-4.2053514 -2.3287244 0.50187087
-4.1481524 -2.3286977 0.50837767
-3.8096423 -2.3385787 0.48435917
-3.7252433 -2.3352764 0.49407625
-3.2330167 -2.3440394 0.48191741
-3.1680617 -2.3398857 0.48934639
-3.0923491 -2.3221779 0.49677542
-2.4830308 -2.3323698 0.48487103
-2.3623929 -2.3226452 0.4979462
-9.4316034 -2.2488484 0.49679345
-9.3363495 -2.254601 0.48748687
-9.2663479 -2.2709532 0.4812825
-8.4816208 -2.2606857 0.49849099
-8.4380226 -2.2779884 0.49467742
-8.3461018 -2.2851152 0.48459864
-8.0405674 -2.2459278 0.53198254
-7.9676476 -2.2555137 0.52326155
-7.8919878 -2.2606964 0.51389444
-7.8051901 -2.2754767 0.50420445
-7.7204485 -2.2886853 0.4948374
-7.6346779 -2.2979784 0.48514742
-7.5861869 -2.3170698 0.48127139
-7.4943171 -2.2522044 0.53817689
-7.3170052 -2.2636232 0.5152545
-7.2383022 -2.2837834 0.50753069
-7.1802325 -2.302947 0.50267214
-6.9076643 -2.2673755 0.52959543
-6.8422618 -2.2861927 0.52422029
-6.7509179 -2.2877932 0.51290411
-6.6680379 -2.296526 0.504417
-6.6045256 -2.2861421 0.5198763
-6.5157118 -2.2652123 0.52970207
-6.4275842 -2.2575769 0.52985758
-6.3607883 -2.2761707 0.52637386
-6.282032 -2.2665343 0.51592237
-6.1975374 -2.2653105 0.50737113
-6.1150217 -2.2772353 0.52665406
-6.0330973 -2.2845688 0.51152211
-5.9610214 -2.2866623 0.51665884
-5.8791614 -2.2823589 0.51401561
-5.8005595 -2.2783306 0.51764673
-5.7217445 -2.2718062 0.51938081
-5.6326509 -2.2837815 0.51923096
-5.5569253 -2.2790883 0.5267961
-5.4781046 -2.2923255 0.51822066
-5.395092 -2.2806301 0.52548301
-5.3143234 -2.2758372 0.52469528
-5.2380924 -2.2878888 0.51841068
-5.1528697 -2.265727 0.52574569
-5.0804334 -2.2662435 0.50691873
-5.0005441 -2.2841303 0.50986224
-4.9214478 -2.2785776 0.52557832
-4.836556 -2.2845402 0.52423161
-4.7583299 -2.2900488 0.52359635
-4.6809244 -2.2795341 0.53570646
-4.5946302 -2.2778966 0.53617799
-4.512486 -2.2982099 0.52352339
-4.4408417 -2.2914395 0.52954096
-4.3680882 -2.2831795 0.53587514
-4.2815542 -2.2755284 0.54456204
-4.1905446 -2.2637308 0.55361098
-4.1238804 -2.2920437 0.52546126
-4.0463581 -2.3033538 0.51601607
-3.9576902 -2.297518 0.52620059
-3.8875883 -2.2635615 0.52959543
-3.8042154 -2.2639132 0.54105306
-3.7180893 -2.2629869 0.55307645
-3.6528764 -2.3142529 0.50005603
-3.5626338 -2.3098006 0.51101887
-3.4751616 -2.2984118 0.52098513
-3.4079728 -2.2836537 0.52808607
-3.3334279 -2.2736704 0.53705567
-3.2342579 -2.262665 0.54963803
-3.1596327 -2.2466111 0.55835849
-3.0134132 -2.3047235 0.50485045
-2.9201932 -2.295723 0.51583254
-2.8310668 -2.2801089 0.52584553
-2.7595735 -2.2697902 0.53424352
-2.6583745 -2.2568989 0.54651761
-2.6157072 -2.2436242 0.55103958
-2.5532973 -2.2427778 0.55943763
-2.4360268 -2.3192594 0.48922941
-2.2864466 -2.3029938 0.505301
-2.1731257 -2.3042645 0.51864856
-11.186975 -2.1679676 0.51927716
-11.016042 -2.1790986 0.50562996
-10.811538 -2.17539 0.48891208
-10.780838 -2.2280176 0.48788854
-9.8529911 -2.1690452 0.53623557
-9.6418667 -2.2137139 0.51651454
-9.5018635 -2.2297108 0.50299782
-9.012023 -2.1904182 0.5573293
-8.9293404 -2.1950946 0.5475229
-8.8372412 -2.2161517 0.53771651
-8.6924057 -2.2278714 0.52110016
-8.5316544 -2.2241597 0.50175977
-8.2511101 -2.2001183 0.5562076
-8.2019825 -2.2102225 0.55039358
-8.1317692 -2.225951 0.54231858
-7.6415081 -2.2207634 0.55536866
-7.5677662 -2.2376118 0.54677272
-7.385499 -2.2308497 0.52023768
-7.1660008 -2.2253454 0.5593003
-7.1197672 -2.2149994 0.5508132
-6.6571937 -2.2343702 0.55392772
-6.5747924 -2.2366481 0.54347622
-6.2612548 -2.2182059 0.55988503
-6.1994176 -2.2107332 0.55121887
-6.1465683 -2.2212868 0.54833013
-6.0513 -2.236104 0.54307795
-5.9970388 -2.2378192 0.53887618
-5.4449744 -2.2034779 0.55739796
-5.4061732 -2.2116745 0.55970126
-5.2309475 -2.2039933 0.55970126
-5.1925845 -2.1962397 0.55854958
-5.0743279 -2.1916401 0.54418737
-2.7556996 -2.2305963 0.53101355
-2.2926841 -2.1876609 0.49631181
-13.981665 -2.0897198 0.52573735
-13.66622 -2.1160901 0.50751752
-13.444695 -2.1570497 0.49505135
-11.499281 -2.1266236 0.5438422
-11.358277 -2.1534491 0.53292441
-10.064519 -2.1424084 0.55706453
-9.9641876 -2.1589334 0.54731482
-9.683466 -2.1523616 0.51806563
-6.8662019 -2.1554484 0.50498283
-2.3491111 -2.1114318 0.48432624
-2.3170235 -2.0871677 0.48650542
-14.222925 -2.0426407 0.53940219
-6.8258228 -2.0317757 0.50860715
-11.293828 -1.9667819 0.52320075
-6.8272524 -1.9457335 0.52352345
-11.692158 -1.9001622 0.55475998
-11.308926 -1.8715526 0.52234781
-6.8484087 -1.902729 0.51924783
-2.3730505 -1.8738256 0.55459261
-6.8404622 -1.8132689 0.55883455
-6.7031398 -2.2596152 0.56532931
-5.6255431 -2.2442722 0.57352102
-4.6018367 -2.2627583 0.56408679
-4.5368314 -2.2483747 0.56758827
-4.097497 -2.2529521 0.56390405
-4.044271 -2.2513173 0.57103014
-3.9366536 -2.2440321 0.58528209
-3.638464 -2.250864 0.56269515
-3.1187153 -2.2405982 0.56359076
-9.146102 -2.1609366 0.57203883
-9.0630436 -2.1683497 0.56223249
-8.4091349 -2.1709619 0.57558769
-8.3383293 -2.1917439 0.56751263
-7.9544353 -2.1619897 0.59573191
-7.8860674 -2.1727452 0.58638853
-7.8098898 -2.1957693 0.57741892
-7.7200775 -2.2053316 0.56508571
-7.3247986 -2.1905692 0.57825482
-7.2258868 -2.209197 0.56580704
-6.9123135 -2.2100656 0.58623224
-6.8346133 -2.2121773 0.57483065
-6.7620773 -2.1955926 0.5922693
-6.6881475 -2.193681 0.59622335
-6.5959859 -2.1810446 0.59524983
-6.5244484 -2.1957624 0.58824688
-6.4377575 -2.202769 0.57800514
-6.355638 -2.2136748 0.57003927
-6.2935333 -2.2015657 0.57878178
-6.1822939 -2.1672633 0.59482652
-6.122457 -2.1845515 0.59281117
-6.0376511 -2.1924331 0.58618921
-5.9544573 -2.199168 0.58043092
-5.8687119 -2.1966312 0.5836643
-5.7931032 -2.1930184 0.58968347
-5.7187581 -2.1932204 0.5891946
-5.6323113 -2.1985898 0.59079009
-5.5529385 -2.2042902 0.5860709
-5.4790597 -2.1984105 0.58662564
-5.3960047 -2.2000687 0.58659691
-5.3155036 -2.1998317 0.5794524
-5.2439537 -2.1929324 0.5864324
-5.1610751 -2.18625 0.58714807
-5.0738592 -2.2007349 0.5831663
-4.997303 -2.1995625 0.57999909
-4.9101219 -2.1912231 0.59270149
-4.8362098 -2.1986623 0.59209728
-4.7569857 -2.1920557 0.5977661
-4.6761332 -2.1960692 0.59617013
-4.5969887 -2.1957421 0.60519129
-4.5145979 -2.196167 0.60071617
-4.4384766 -2.2026441 0.59755886
-4.3598728 -2.1993775 0.6012764
-4.2890801 -2.1959093 0.60145104
-4.2045689 -2.2013464 0.59980178
-4.1360793 -2.1787889 0.60505396
-4.0327125 -2.1843896 0.60972381
-3.958837 -2.1968887 0.60512352
-3.8938246 -2.1974277 0.58290672
-3.7917986 -2.2005832 0.59953409
-3.7150114 -2.1892662 0.60998553
-3.6391091 -2.1739612 0.61996198
-3.5724473 -2.2122078 0.58404708
-3.4755251 -2.2200923 0.58263981
-3.4110317 -2.2033474 0.59027827
-3.3333101 -2.1964538 0.60173583
-3.2323356 -2.17905 0.6158244
-3.0715778 -2.2388861 0.57031798
-3.0190074 -2.2202024 0.57592404
-2.9301062 -2.2077057 0.58788347
-2.8439188 -2.1900263 0.59909546
-2.7782531 -2.1755567 0.60769141
-2.513773 -2.2257702 0.56331366
-2.4409726 -2.2293046 0.57364964
-2.3680499 -2.2092922 0.5820477
-2.2746961 -2.1997719 0.59432173
-2.1980243 -2.1777375 0.60336578
-1.7385459 -2.2156045 0.56495649
-1.6464971 -2.1968706 0.57512605
-10.40756 -2.0957758 0.59118861
-10.280547 -2.1090302 0.57833672
-10.172445 -2.1267531 0.56770062
-9.5462589 -2.0929255 0.61834675
-9.4441319 -2.1000531 0.60581636
-9.3712826 -2.1181288 0.59764439
-9.2876949 -2.129925 0.58783805
-9.2150583 -2.1452308 0.57966602
-8.8904533 -2.0811567 0.63760388
-8.8299179 -2.0961237 0.62985182
-8.7519636 -2.1008749 0.61886978
-8.6986494 -2.1172376 0.61240977
-8.6142244 -2.1155748 0.60013574
-8.5106125 -2.1227994 0.58592367
-8.4552259 -2.1554174 0.58075571
-8.2176781 -2.1140766 0.63235784
-8.117712 -2.131712 0.61815596
-8.0246944 -2.1504817 0.60544896
-7.7654767 -2.1016395 0.63907915
-7.7050743 -2.1135731 0.6301676
-7.6294789 -2.1309397 0.61955875
-7.5481539 -2.1409519 0.60725248
-7.477735 -2.1573262 0.5979166
-7.3902321 -2.1557741 0.58348858
-7.3224716 -2.1109669 0.63753945
-7.2207656 -2.1261892 0.62202054
-7.1448598 -2.1435065 0.61188585
-6.9050198 -2.1403422 0.63656723
-6.8311844 -2.1458526 0.62501234
-6.527524 -2.1341052 0.63455844
-6.4337077 -2.1481977 0.62361771
-6.3507514 -2.1538804 0.61306095
-6.2821646 -2.1592784 0.60519141
-6.2045002 -2.1135032 0.61999744
-6.1234078 -2.1277003 0.63277006
-6.0419912 -2.1385303 0.62650812
-5.9587717 -2.1394074 0.61805451
-5.8880725 -2.1410081 0.61200124
-5.8291202 -2.1456957 0.60866153
-5.6579766 -2.124831 0.62653786
-5.5576501 -2.1234233 0.63995987
-5.482913 -2.121712 0.6375922
-5.3994079 -2.1181264 0.63556278
-5.330409 -2.1247518 0.62769783
-5.2509236 -2.117497 0.6375922
-5.1585975 -2.1257937 0.62615389
-5.0904403 -2.1155908 0.61202294
-5.0003638 -2.143245 0.6057393
-4.92377 -2.1572556 0.61617589
-4.829195 -2.1535094 0.62369019
-4.7521439 -2.143595 0.62869978
-4.6855812 -2.1488287 0.63809276
-4.3451819 -2.1471744 0.62649685
-4.2770009 -2.1326017 0.63340676
-3.9758821 -2.1564853 0.62606281
-3.9042389 -2.1369729 0.63425624
-3.5507073 -2.1489582 0.63088846
-3.5028763 -2.1383848 0.63753945
-3.1495826 -2.1579447 0.62677276
-3.0952752 -2.1428881 0.63398683
-2.741749 -2.1395531 0.60956001
-2.5990882 -2.1514971 0.633479
-1.6889238 -2.0963004 0.56386685
-15.134211 -2.0069039 0.59286296
-14.648779 -2.0241201 0.56433457
-12.445148 -2.0076137 0.61958432
-10.797506 -2.0435441 0.63063073
-10.669845 -2.064311 0.61777884
-10.519749 -2.0749753 0.60226786
-9.713644 -2.005852 0.63523555
-9.6521511 -2.0592532 0.63005996
-7.3619027 -2.0729666 0.63848954
-5.0609484 -2.0748105 0.63184202
-2.3703122 -2.016963 0.56589764
-15.387608 -1.9426047 0.60724699
-12.613786 -1.9677609 0.6328904
-10.780697 -1.9765775 0.62664223
-6.8253164 -1.9412563 0.58141905
-2.337568 -1.9728432 0.56718963
-15.806572 -1.8978475 0.63169992
-6.8264194 -1.8759618 0.59812987
-15.766836 -1.7811394 0.62834364
-6.8332872 -1.7985207 0.60092652
-2.3825748 -1.7731104 0.63460022
-15.785215 -1.673008 0.62858337
-15.766773 -1.5604806 0.62666547
-4.7092299 -2.1722968 0.64247608
-4.2836833 -2.1638377 0.64031667
-8.3475208 -2.0896881 0.65104455
-8.2988749 -2.1021655 0.64431733
-7.8526731 -2.0878747 0.65265852
-7.8153467 -2.0997038 0.64756626
-7.164475 -2.0868742 0.67385781
-6.9506369 -2.1369512 0.6439203
-6.8287544 -2.0837867 0.67544192
-6.7644601 -2.0968409 0.6664207
-6.6892724 -2.112077 0.65643972
-6.6174111 -2.1285317 0.64799434
-6.4393296 -2.0905721 0.66835886
-6.3598766 -2.1002448 0.65813088
-6.2806149 -2.1054552 0.64748567
-6.1105766 -2.0927978 0.67649043
-6.044982 -2.0858178 0.66566658
-5.9573774 -2.0985506 0.65971345
-5.8712072 -2.1107428 0.65518093
-5.791275 -2.1032257 0.64571011
-5.7176762 -2.119 0.64604837
-5.6330152 -2.1245611 0.64334238
-5.5666723 -2.1060917 0.66065514
-5.4924788 -2.1117508 0.66060507
-5.3739347 -2.0864413 0.6771912
-5.337441 -2.0892389 0.67864442
-5.2250452 -2.1034918 0.65997863
-5.1433911 -2.1084735 0.65652949
-4.9973249 -2.1048858 0.64717585
-4.926837 -2.1131413 0.65619576
-4.8492169 -2.1052551 0.66126943
-4.7658763 -2.1089392 0.67209327
-4.6805134 -2.1041472 0.67428064
-4.6087875 -2.1231005 0.6590082
-4.5230951 -2.1126468 0.66833574
-4.4350114 -2.1227758 0.66543657
-4.3616829 -2.1014123 0.67128104
-4.2707195 -2.104058 0.67230672
-4.2013693 -2.1271236 0.65973967
-4.118751 -2.1257973 0.65835911
-4.0495353 -2.1028502 0.66526908
-3.9699934 -2.0901308 0.67716938
-3.8451176 -2.123004 0.64181942
-3.7993212 -2.118341 0.64917248
-3.7172098 -2.1139603 0.6635285
-3.6314144 -2.0908697 0.67543346
-3.5441346 -2.0835702 0.69119012
-3.4671221 -2.1342332 0.64324021
-3.3944752 -2.1173775 0.65369165
-3.3033998 -2.1098671 0.66936886
-3.2473514 -2.1000342 0.67839515
-3.1682556 -2.0879917 0.691697
-3.0424139 -2.1446993 0.64332271
-2.9924574 -2.1235695 0.64926368
-2.9063392 -2.1076932 0.66241872
-2.8322103 -2.1003146 0.674725
-2.7977579 -2.0841677 0.67896855
-2.5260856 -2.1353765 0.64356983
-2.4391415 -2.1184554 0.65602762
-2.3829882 -2.0953848 0.66300398
-2.2998624 -2.1004035 0.67720592
-1.7861924 -2.0985391 0.65698391
-1.7145123 -2.0858309 0.66667396
-9.9859962 -2.001061 0.67010266
-9.9015999 -2.0241299 0.66029626
-9.2226601 -2.0026293 0.68153197
-9.1618633 -2.0233164 0.67377996
-9.1046467 -2.0445552 0.66667396
-9.0259686 -2.0547061 0.65569192
-8.9474897 -2.0633962 0.64470989
-8.7346325 -2.0016999 0.70785207
-8.6646109 -2.0098164 0.69664007
-8.5042753 -2.0319419 0.67159992
-8.4449606 -2.0622482 0.66449893
-8.3962202 -2.0763836 0.65777171
-8.1912594 -2.0151854 0.7057029
-8.1032572 -2.020869 0.69000179
-8.0454369 -2.0429707 0.68193901
-7.9590263 -2.0643382 0.66878402
-7.8900142 -2.0754542 0.65775079
-7.78899 -2.0221307 0.71307504
-7.7095823 -2.0396266 0.69977319
-7.6242857 -2.0498898 0.68457103
-7.5713739 -2.0642331 0.6764949
-7.4769993 -2.0519063 0.67485738
-7.3870134 -2.0395646 0.67331719
-7.3189912 -2.0329101 0.6946916
-7.2295232 -2.0589163 0.68138599
-7.133482 -2.0013499 0.71978039
-6.9189067 -2.0612056 0.68791813
-6.8620138 -2.0684679 0.67832106
-6.7505283 -2.0392513 0.7130273
-6.6717682 -2.0473807 0.699251
-6.6032848 -2.0657558 0.69090182
-6.5196667 -2.0576632 0.68805343
-6.4486647 -2.039027 0.70254838
-6.353857 -2.0440052 0.69881469
-6.2736478 -2.0438547 0.68505931
-6.1925111 -2.0342932 0.6877566
-6.1292877 -2.0335023 0.69646722
-6.0462875 -2.0496624 0.69047064
-5.9619336 -2.0449097 0.69637346
-5.8770127 -2.053602 0.68990672
-5.794642 -2.037236 0.69352531
-5.7198744 -2.0432291 0.69577396
-5.6387253 -2.0403318 0.69520545
-5.5667305 -2.0490906 0.69619411
-5.4803081 -2.0497849 0.69312871
-5.4060326 -2.0514145 0.69383889
-5.3199959 -2.0502365 0.6932345
-5.2405205 -2.0471022 0.69509888
-5.1663895 -2.0396266 0.69849086
-5.0990915 -2.0484691 0.68448377
-5.0041656 -2.0473478 0.67968237
-4.923141 -2.06235 0.69317639
-4.8362532 -2.0584395 0.70160502
-4.7552328 -2.0597155 0.71255237
-4.7173033 -2.0516934 0.7149744
-4.582705 -2.077358 0.68686324
-4.5073586 -2.0559518 0.69204974
-4.43296 -2.0646589 0.707609
-4.3698006 -2.0496454 0.71437395
-4.3195767 -2.0316408 0.71843284
-4.1938539 -2.0621965 0.69048434
-4.1193924 -2.0518281 0.70217341
-4.0668035 -2.0466263 0.71135753
-3.9214249 -2.0744736 0.68292767
-3.8821657 -2.0467684 0.6844632
-3.8296051 -2.0334535 0.69214082
-3.7377527 -2.058691 0.71670932
-3.488071 -2.0623035 0.69854319
-3.4116023 -2.0391281 0.71009803
-3.2321837 -2.0749767 0.67744499
-3.1316352 -2.0786564 0.69739783
-3.0781846 -2.0623524 0.70547396
-3.0120361 -2.053947 0.7173506
-2.7527843 -2.0546701 0.68363649
-2.6549499 -2.0573139 0.70188373
-2.6004734 -2.0508001 0.71121955
-2.2610517 -2.0792205 0.68169069
-2.2187247 -2.0380127 0.6850543
-1.6308022 -2.0614414 0.67744064
-12.875889 -1.9445065 0.65438479
-11.358994 -1.9489363 0.68779969
-11.200265 -1.9716473 0.67140239
-11.053184 -1.9945422 0.65633464
-10.306946 -1.9443641 0.70932817
-10.199844 -1.9653257 0.696253
-10.085365 -1.9816158 0.68208826
-9.4782486 -1.963047 0.71770811
-9.4063034 -1.9833107 0.70801806
-9.3271065 -1.9991903 0.69703603
-8.7942181 -1.9871767 0.71682167
-8.542532 -1.9893862 0.67421603
-8.2662086 -1.9994746 0.71800923
-7.8358927 -1.9986027 0.71925086
-7.3908472 -1.9882115 0.70169455
-6.2193761 -1.9762897 0.71013039
-5.8532085 -1.9953623 0.71922803
-5.8340707 -1.9928906 0.7161212
-5.0765114 -1.9863336 0.69560558
-5.0177603 -1.9924502 0.7106843
-1.6980298 -1.9535198 0.66021389
-13.408674 -1.8835317 0.69805592
-13.048427 -1.8977497 0.66803199
-11.502464 -1.9191178 0.70242429
-2.3542044 -1.8851385 0.64880216
-11.275362 -1.7953036 0.67450458
-6.8217597 -1.7897955 0.66710639
-2.3622792 -1.8217632 0.64207488
-2.1928365 -1.8217409 0.67122614
-11.317266 -1.7400609 0.67760676
-6.834168 -1.7272177 0.68503737
-5.6233335 -1.7048044 0.71897173
-11.300463 -1.6710728 0.67406142
-11.278979 -1.6017621 0.67007285
-6.8806829 -1.6701678 0.71302092
-6.8223166 -1.6588711 0.69475567
-2.377624 -1.6629124 0.7154631
-7.1758895 -2.0066233 0.73014522
-6.8990526 -2.0009072 0.73515296
-6.8524776 -2.0184891 0.72930843
-6.7994003 -2.0272298 0.72012424
-6.6666336 -2.0019026 0.74819839
-6.5889196 -2.0055392 0.73263919
-6.533494 -2.0191031 0.72519773
-6.323679 -2.0068007 0.7396788
-6.2973766 -2.0000131 0.73241282
-5.9491706 -2.0008667 0.73320872
-5.892879 -2.0030594 0.72699505
-5.8021474 -2.0122776 0.72078145
-5.5184603 -2.0025997 0.75318044
-4.9757175 -2.0144472 0.72388828
-4.9189796 -2.0161171 0.73087853
-4.8423176 -2.0163572 0.74058741
-4.7861748 -2.0093851 0.74563599
-4.6745429 -2.054105 0.72224039
-4.6086063 -2.034735 0.72587341
-4.5270653 -2.0223913 0.73568243
-4.4438753 -2.0086031 0.74658149
-4.3312416 -2.0524268 0.7224918
-4.2691789 -2.0314536 0.72835469
-4.2014847 -2.0164576 0.73782557
-4.1420236 -2.0061059 0.74752188
-4.0212026 -2.0490639 0.72137666
-3.9689522 -2.0219324 0.72555131
-3.6895592 -2.036135 0.72208369
-3.6425009 -2.0288465 0.73072106
-3.5837247 -2.0136724 0.74051011
-3.3199582 -2.0253096 0.72690511
-3.2695606 -2.0114899 0.73530865
-2.9656465 -2.0488598 0.72590184
-2.9199486 -2.0233965 0.73160267
-2.8581569 -2.0076385 0.7420541
-2.5218384 -2.0371742 0.72437453
-2.4222927 -2.0127382 0.74050009
-10.425471 -1.924886 0.72403777
-9.6591511 -1.9322718 0.74354815
-9.5538893 -1.9428647 0.72804409
-9.0473995 -1.924594 0.75569004
-8.9768429 -1.9387745 0.74447799
-8.9171181 -1.9565507 0.73550838
-8.8574171 -1.9732542 0.72653878
-8.4370842 -1.9525239 0.74559236
-8.3413219 -1.9816616 0.73031557
-8.1991253 -1.9201543 0.78481007
-8.1237545 -1.9345086 0.77055806
-8.0286064 -1.9537719 0.75298059
-7.9469481 -1.9781669 0.73920369
-7.8821864 -1.9923004 0.7278021
-7.8055868 -1.9392061 0.78467935
-7.7277699 -1.9407651 0.7673471
-7.6499705 -1.9577658 0.7526409
-7.5771446 -1.9756751 0.73951042
-7.4999762 -1.9877316 0.72480422
-7.4016552 -1.9253557 0.76584637
-7.3109684 -1.9540091 0.75010711
-7.2481971 -1.9678267 0.76190084
-7.1751795 -1.9440895 0.76901835
-6.9128098 -1.9529629 0.76575047
-6.838932 -1.9491441 0.77322853
-6.7655234 -1.9668019 0.76071346
-6.6800561 -1.953777 0.77468622
-6.6022959 -1.9644768 0.76011419
-6.5224943 -1.9625434 0.76619971
-6.4325624 -1.9609364 0.76591784
-6.352807 -1.9686102 0.7557317
-6.2827883 -1.9503378 0.75568444
-6.1947622 -1.9440134 0.7506845
-6.1159153 -1.9547266 0.76616502
-6.0312786 -1.9568937 0.75590873
-5.9598083 -1.9629414 0.75149345
-5.8824782 -1.9600587 0.75462681
-5.7952032 -1.9715744 0.75880849
-5.7196283 -1.9546345 0.76725727
-5.6414347 -1.9532725 0.76426947
-5.5583687 -1.9533899 0.75941002
-5.4763227 -1.9528307 0.75935954
-5.3962011 -1.9612381 0.75948399
-5.3203702 -1.9578966 0.75878924
-5.2439675 -1.9602206 0.76253384
-5.1587639 -1.9569776 0.76597512
-5.0837436 -1.941222 0.74749053
-4.9927702 -1.9587147 0.75442195
-4.9222484 -1.9525013 0.76021564
-4.8520241 -1.941424 0.76518166
-4.7565217 -1.9635329 0.76771963
-4.6812582 -1.9652985 0.7697736
-4.6024575 -1.9689198 0.7722187
-4.5193815 -1.9583831 0.77282059
-4.4461741 -1.9498569 0.78498894
-4.3692422 -1.9702302 0.77437389
-4.2796216 -1.9825792 0.77213359
-4.1990857 -1.9692782 0.78618121
-4.1180477 -1.9579722 0.77647012
-4.036026 -1.9800764 0.76398319
-3.9449806 -1.9678202 0.76896113
-3.8901932 -1.9634327 0.74462849
-3.8048487 -1.9754356 0.75080782
-3.7268803 -1.9678059 0.76729757
-3.6617806 -1.9449376 0.77773422
-3.5434933 -1.9977045 0.74626833
-3.4811563 -1.982276 0.75740099
-3.4008095 -1.9624258 0.77218044
-3.3410509 -1.9580488 0.78542435
-3.2400057 -1.9984554 0.73951042
-3.1802239 -1.9894772 0.75106525
-3.0943875 -1.9794087 0.76839757
-3.0271978 -1.9534655 0.77942711
-2.8147249 -1.9976366 0.74965513
-2.7560992 -1.9771512 0.75915647
-2.684041 -1.9439983 0.77008301
-2.3362942 -1.9982563 0.7553525
-2.2776632 -1.9878738 0.76553702
-2.2258792 -1.972882 0.77402413
-1.7649324 -1.9722389 0.75718498
-1.7084892 -1.9512857 0.76540709
-13.781191 -1.8640569 0.72910339
-10.560096 -1.849147 0.7387473
-10.551702 -1.9053901 0.73983693
-9.7137241 -1.8505086 0.74742419
-9.6494846 -1.8782338 0.73902613
-9.1188278 -1.8866327 0.76540709
-8.5888433 -1.8724271 0.7672345
-8.4979172 -1.9026164 0.75238204
-8.2358665 -1.9019475 0.79051089
-7.8677187 -1.9070143 0.79413331
-7.8285809 -1.9181156 0.78678024
-7.5275574 -1.9020722 0.79175842
-7.4647388 -1.9064578 0.77736282
-7.3895521 -1.9161847 0.76123977
-7.2621899 -1.877444 0.79401529
-6.7335262 -1.8768528 0.79054081
-6.7110786 -1.9158094 0.79635358
-6.4614415 -1.9059807 0.79379165
-6.3758912 -1.917761 0.77825755
-6.2500334 -1.8647417 0.78959793
-6.2040367 -1.8887067 0.77949506
-6.1260009 -1.899846 0.77801055
-5.8822479 -1.9048824 0.79532325
-5.7989459 -1.9060442 0.78478909
-5.7114754 -1.9187537 0.78127772
-5.5762954 -1.914315 0.76898795
-5.0814939 -1.892171 0.76928061
-5.0161309 -1.892692 0.77659589
-4.9209447 -1.9007726 0.79298228
-4.6094584 -1.8951888 0.78904623
-4.3644819 -1.8968379 0.78447115
-3.9010625 -1.8957038 0.77390504
-3.6369581 -1.9175042 0.77773422
-3.3821514 -1.8922036 0.76354307
-2.2510445 -1.9186389 0.7638396
-1.8584969 -1.8423487 0.73102361
-10.518261 -1.7790428 0.73057532
-9.7367268 -1.7824693 0.74742413
-8.9817581 -1.7645048 0.73251849
-8.0565758 -1.7678832 0.73635328
-7.7557507 -1.802103 0.75316614
-7.4750519 -1.8143309 0.76354307
-7.168478 -1.7698619 0.74767685
-6.8107481 -1.7765948 0.72113878
-6.6851368 -1.760367 0.7440384
-6.4893093 -1.8275034 0.7735973
-6.4670105 -1.7659706 0.7471894
-6.2440667 -1.8178765 0.76973385
-5.9585085 -1.8179669 0.7672323
-5.4782004 -1.7674416 0.74340129
-5.3642011 -1.7740971 0.74587518
-5.3233337 -1.7696496 0.74448371
-5.2368269 -1.7627976 0.77086151
-4.8921766 -1.8191373 0.7593317
-4.8566599 -1.7697898 0.79597127
-4.7479687 -1.7630676 0.76020956
-4.607193 -1.7852249 0.7590887
-4.4062309 -1.7718811 0.75974798
-4.3726106 -1.8014855 0.74951947
-4.2894578 -1.7711996 0.7601344
-4.1801348 -1.7811046 0.74812078
-4.1059632 -1.7740074 0.75033563
-4.0454807 -1.7643566 0.76365656
-3.9586787 -1.7824023 0.75496292
-3.8779235 -1.7782311 0.75022793
-3.768466 -1.7722756 0.777964
-3.7186129 -1.7835732 0.74500567
-3.6448421 -1.7681818 0.74391961
-3.5480061 -1.7680066 0.76896745
-3.4629891 -1.7888941 0.74864727
-3.3988781 -1.7662261 0.73705512
-3.3014812 -1.7702094 0.76181555
-3.1614568 -1.8016697 0.75113219
-3.0885777 -1.774648 0.73898518
-3.0051465 -1.774788 0.75841832
-2.9269459 -1.7864639 0.7783767
-2.8123796 -1.7967651 0.72495168
-2.7317848 -1.7872865 0.74110395
-2.6962409 -1.7701076 0.74680477
-2.608887 -1.7788997 0.76675755
-2.4793363 -1.8068254 0.79811192
-2.3508947 -1.7898527 0.73215443
-1.8830702 -1.7888139 0.72280145
-1.8061066 -1.7765524 0.73550838
-1.6960146 -1.7755364 0.75494254
-14.51845 -1.7030025 0.78915119
-14.102318 -1.7345402 0.75435078
-12.19969 -1.7235274 0.77333146
-10.968547 -1.7177649 0.788324
-10.658842 -1.7295673 0.74746406
-9.93151 -1.7164176 0.77455622
-9.7662621 -1.7166291 0.74871618
-9.2204361 -1.7216774 0.7721343
-9.0695448 -1.7110475 0.74447799
-8.970686 -1.7170836 0.72728622
-8.6847057 -1.7253695 0.77317542
-8.5839729 -1.7225524 0.75280637
-8.4995975 -1.7443041 0.7379539
-8.2097979 -1.719676 0.76438224
-8.1168756 -1.7277527 0.74490446
-8.060936 -1.7346061 0.73350286
-7.8806911 -1.7220449 0.77154887
-7.7834625 -1.7177854 0.7479139
-7.7285442 -1.7351973 0.73740947
-7.6248875 -1.7192954 0.78542435
-7.559514 -1.7261846 0.76987708
-7.4680552 -1.7296948 0.74741995
-7.4303708 -1.7511814 0.74166173
-7.3324084 -1.7262049 0.78211761
-7.2391205 -1.7188051 0.75581735
-7.167275 -1.7378775 0.76290113
-7.0773592 -1.7238806 0.77931696
-7.0024371 -1.7194563 0.75766927
-6.8143702 -1.7045054 0.76365662
-6.773725 -1.7360458 0.76099235
-6.6847138 -1.7294308 0.75457621
-6.5897918 -1.7234007 0.76583028
-6.5391321 -1.7516096 0.76117003
-6.4502954 -1.725974 0.75804162
-6.3571215 -1.7167526 0.75856024
-6.2741218 -1.7323536 0.74357939
-6.1974192 -1.7195295 0.76329833
-6.1149035 -1.7272747 0.75810277
-6.0313239 -1.7328672 0.75333649
-5.9627266 -1.7223152 0.75043613
-5.8790822 -1.7207651 0.76040918
-5.7944517 -1.7290062 0.75107038
-5.7158012 -1.7214943 0.73696917
-5.6409411 -1.7289852 0.76237047
-5.5621839 -1.7194409 0.74484539
-5.485312 -1.7086691 0.74992669
-5.4036613 -1.7255729 0.7473579
-5.31814 -1.7189776 0.75972509
-5.2449536 -1.7421736 0.75262058
-5.1589136 -1.7387378 0.73808241
-5.0819359 -1.7456765 0.74958599
-5.0003476 -1.7306308 0.75267839
-4.9143286 -1.7356609 0.75839818
-4.8459387 -1.736973 0.72966069
-4.754765 -1.7481594 0.75230902
-4.6750021 -1.7441742 0.76767123
-4.57446 -1.7570233 0.74159306
-4.518949 -1.7487283 0.75152504
-4.4663849 -1.7341244 0.75897413
-4.3713155 -1.7552903 0.73398542
-4.2537937 -1.7553881 0.76427686
-4.2297015 -1.7546359 0.77049053
-3.8570952 -1.7529513 0.74955142
-3.8228083 -1.7542391 0.75902224
-3.6018515 -1.7568903 0.75268638
-2.3558507 -1.7104387 0.72395021
-2.1515601 -1.7208589 0.76553702
-1.6555166 -1.7462816 0.76017481
-6.8373265 -1.6426409 0.75384748
-6.8440056 -1.5691841 0.78440219
-5.7879052 -1.949742 0.80410159
-4.9701829 -1.9352704 0.80234593
-4.9370775 -1.9259212 0.80234593
-4.6468072 -1.943392 0.80118537
-7.2606521 -1.9090598 0.80027723
-6.7558413 -1.9020418 0.80361956
-6.5109029 -1.907428 0.80621886
-5.9517479 -1.8969979 0.80234593
-4.9216495 -1.9175497 0.80059022
-4.2635751 -1.8417709 0.85250092
-3.7582445 -1.845979 0.86610717
-3.3191392 -1.8419486 0.84411091
-3.0088022 -1.8436064 0.84761339
-2.9573226 -1.8404317 0.86028153
-2.5949306 -1.8444743 0.8650381
-2.3244431 -1.844074 0.83611727
-2.2316899 -1.8483298 0.8570202
-2.1596975 -1.8410575 0.87222236
-9.6469421 -1.7751291 0.85211337
-9.1133194 -1.7694637 0.86313874
-9.0182495 -1.7767265 0.8444671
-8.6976709 -1.7695185 0.87792313
-8.625783 -1.7787971 0.86272103
-8.5363894 -1.7786738 0.84276819
-8.2443409 -1.7898962 0.86766422
-8.1674547 -1.7875782 0.84875625
-7.922729 -1.7953656 0.87410134
-7.8612046 -1.7945572 0.85797822
-7.7934122 -1.7886752 0.83955187
-7.6394501 -1.791015 0.8779254
-7.5707216 -1.7953719 0.85976577
-7.4867134 -1.7873774 0.83534414
-7.3742428 -1.7696829 0.87402564
-7.3149967 -1.7887017 0.86094683
-7.2331038 -1.7883701 0.83749515
-6.8905058 -1.8044964 0.87767565
-6.8300276 -1.805138 0.85981143
-6.7701206 -1.7887686 0.83728707
-6.6537652 -1.8076367 0.8740204
-6.6020932 -1.8082162 0.85912228
-6.523284 -1.7874897 0.82932615
-6.4248333 -1.8173929 0.87432879
-6.3570342 -1.7996746 0.84857875
-6.2837224 -1.7858338 0.84323484
-6.1994324 -1.7825655 0.85905522
-6.122014 -1.8004539 0.84838665
-6.0487261 -1.7855113 0.85361171
-5.9523382 -1.7910042 0.86455953
-5.8775644 -1.7959325 0.85312331
-5.7962055 -1.7906135 0.84841317
-5.7227936 -1.7872009 0.83471507
-5.6468186 -1.7778879 0.84937286
-5.5560026 -1.7916403 0.86852038
-5.4805884 -1.801939 0.87098664
-5.4046087 -1.8055398 0.87180865
-5.3207455 -1.8054895 0.87311029
-5.2407637 -1.7968376 0.86068904
-5.1643801 -1.7906432 0.83898604
-5.0803399 -1.7903826 0.84779561
-5.0010581 -1.8043787 0.84491265
-4.9161692 -1.8100322 0.86172485
-4.8296032 -1.8052984 0.85652924
-4.7614455 -1.8131918 0.85510045
-4.673975 -1.8162651 0.85673594
-4.5996928 -1.8101577 0.85715264
-4.522253 -1.8239676 0.83804482
-4.4515047 -1.8177054 0.85369956
-4.3702111 -1.8032659 0.83001423
-4.2789316 -1.8212981 0.84091353
-4.1940122 -1.8179014 0.86367452
-4.1117873 -1.8162103 0.82252967
-4.0300498 -1.8292794 0.84971434
-3.9417014 -1.8133022 0.87068534
-3.8722034 -1.8036878 0.85522974
-3.8226628 -1.8332386 0.84430921
-3.7195621 -1.833501 0.87409979
-3.6321583 -1.8270967 0.82802427
-3.5637765 -1.8357444 0.84899551
-3.480262 -1.8218862 0.86951566
-3.3992202 -1.8164954 0.81781071
-3.2880781 -1.8309821 0.85037285
-3.2382221 -1.8324177 0.86414909
-3.1881087 -1.8329697 0.8779254
-3.0762134 -1.835552 0.82918704
-2.9056513 -1.8363402 0.87294966
-2.8441923 -1.8177413 0.84382433
-2.7116528 -1.8371099 0.83615094
-2.5323288 -1.8206207 0.87711817
-1.7648222 -1.8394128 0.85295421
-1.6840415 -1.8272573 0.868231
-1.6359496 -1.800917 0.87586939
-15.096706 -1.6851795 0.83794004
-12.837282 -1.69086 0.84246594
-12.510457 -1.7089651 0.80701238
-11.49485 -1.7123607 0.85860306
-11.345219 -1.7444379 0.83953512
-10.544195 -1.7264583 0.8714565
-10.415426 -1.748444 0.85207647
-10.229905 -1.7513897 0.82300639
-9.7771263 -1.7175137 0.87229502
-9.6877995 -1.7390559 0.85734564
-9.3979235 -1.7383128 0.8050229
-9.1976271 -1.7562923 0.87926424
-8.8292923 -1.743886 0.803729
-8.3875389 -1.748829 0.80666316
-8.0194054 -1.7456962 0.80778909
-6.8739858 -1.7149258 0.84660751
-6.7122431 -1.7572088 0.81087911
-5.0710564 -1.7391315 0.85495621
-5.021862 -1.7496725 0.86831486
-2.3641479 -1.7086384 0.81331408
-1.6392715 -1.7545825 0.87162584
-15.394819 -1.6197289 0.86250508
-13.050809 -1.6467837 0.8650676
-6.819221 -1.6175367 0.82281774
-5.0663581 -1.6560724 0.8618921
-2.3424847 -1.6423067 0.81173056
-2.18718 -1.6291858 0.84561861
-11.30451 -1.5405575 0.82809436
-11.256833 -1.5949098 0.82319117
-6.8044825 -1.5538372 0.84091353
-8.7768812 -1.7618876 0.89502555
-8.3678112 -1.7751234 0.89602607
-8.3008022 -1.7805171 0.88026947
-8.0338955 -1.7687087 0.89943761
-7.9711614 -1.7875632 0.88561779
-7.7177048 -1.7734143 0.89671129
-7.4869766 -1.7693367 0.90717363
-7.4167118 -1.7684213 0.88620245
-7.2399535 -1.7750716 0.90752339
-7.1611075 -1.7892971 0.88693637
-6.9319224 -1.7986674 0.88854951
-6.8237143 -1.7637289 0.91209322
-6.7548251 -1.7824793 0.89636749
-6.6970458 -1.810883 0.88809079
-6.6049266 -1.7690755 0.90944242
-6.5201297 -1.7871174 0.89012992
-6.4438882 -1.7966175 0.89182186
-6.3562026 -1.7694992 0.89616346
-6.3015656 -1.783927 0.88688642
-6.1702266 -1.770354 0.90512389
-6.1249413 -1.7743186 0.89534932
-6.0421715 -1.7942398 0.88557482
-5.9814339 -1.7620629 0.9145565
-5.8816643 -1.7663326 0.89605993
-5.8120985 -1.7792958 0.89092195
-5.7181683 -1.7890881 0.89252591
-5.6355853 -1.8076221 0.8844139
-5.5557094 -1.7666632 0.91145092
-5.4759841 -1.7672678 0.90757239
-5.4091382 -1.7636809 0.90390944
-5.319314 -1.7754378 0.91306698
-5.236865 -1.7781298 0.90719926
-5.1591253 -1.7923009 0.90495723
-5.1088743 -1.8176031 0.89605987
-4.9829378 -1.7743647 0.88886672
-4.9281025 -1.7667665 0.89441574
-4.8688803 -1.7689068 0.90736341
-4.7406487 -1.796669 0.90585303
-4.6850815 -1.7881488 0.89974791
-4.6153975 -1.7752957 0.91147739
-4.5265927 -1.8126724 0.89208156
-4.4370203 -1.7861391 0.90544051
-4.3535852 -1.7954669 0.90250689
-4.2819042 -1.7969208 0.91426653
-4.1998081 -1.7766063 0.91075915
-4.1178718 -1.7917402 0.90280646
-4.0481448 -1.7845354 0.89609164
-3.9798231 -1.7801403 0.91623157
-3.8594203 -1.7865872 0.8877728
-3.7781014 -1.7848963 0.91262734
-3.7092564 -1.7975852 0.90245855
-3.6408219 -1.8073633 0.89081156
-3.5641606 -1.7913705 0.91018754
-3.4862118 -1.7733302 0.93004799
-3.3956594 -1.8050971 0.89026141
-3.3316059 -1.7864053 0.90514421
-3.2780631 -1.7748077 0.91867399
-3.1599913 -1.8180552 0.88293499
-3.0803547 -1.8015248 0.90213829
-2.9951491 -1.7687124 0.92050666
-2.8417606 -1.8026919 0.88446617
-2.7738957 -1.7870743 0.90001345
-2.6332495 -1.771306 0.9351387
-2.4490061 -1.8051682 0.8955009
-2.3457513 -1.7773656 0.9175601
-10.688336 -1.7058471 0.89342058
-10.001077 -1.6823841 0.91116333
-9.9078541 -1.7067099 0.89546651
-9.428957 -1.6996343 0.92254847
-9.3150845 -1.7301254 0.90133071
-9.0152636 -1.6866099 0.94253218
-8.90868 -1.7101023 0.92020404
-8.8166828 -1.7366769 0.90167648
-8.5046625 -1.7032235 0.92176187
-8.4354057 -1.7492074 0.9096818
-8.2674141 -1.6877058 0.95126176
-8.1960878 -1.7082106 0.93456292
-8.1141758 -1.7394215 0.91671228
-7.9656019 -1.6946309 0.95494741
-7.8886328 -1.7214874 0.93678772
-7.8035002 -1.7409048 0.91549712
-7.694047 -1.6916071 0.95520449
-7.6501465 -1.7137649 0.94573367
-7.5782127 -1.7333204 0.92746842
-7.5168886 -1.7415943 0.91055614
-7.3991351 -1.6911966 0.93876725
-7.3165984 -1.7251716 0.91987562
-7.2320919 -1.7117643 0.93750936
-7.1563163 -1.7221028 0.93929416
-7.0165787 -1.6921101 0.95513213
-6.9066796 -1.7401685 0.93195742
-6.831708 -1.7294179 0.93685216
-6.7598267 -1.7178483 0.94221514
-6.6851869 -1.7411838 0.9252435
-6.5887742 -1.709596 0.9456411
-6.5242763 -1.7352924 0.93419945
-6.4355392 -1.7328318 0.92520404
-6.371594 -1.7186514 0.94031233
-6.2779388 -1.7196137 0.92162514
-6.1916356 -1.7164347 0.91833997
-6.1184583 -1.7313328 0.93253928
-6.0352688 -1.7206157 0.93154484
-5.9548302 -1.7240708 0.92060703
-5.8790603 -1.7263316 0.92191368
-5.8049278 -1.716436 0.94147712
-5.7255101 -1.719593 0.93279481
-5.6378145 -1.7316655 0.92898214
-5.5571537 -1.7249123 0.92169386
-5.4775624 -1.7165222 0.93421334
-5.3979816 -1.7375077 0.92428041
-5.3198352 -1.7313358 0.92921144
-5.2349687 -1.7262112 0.93585593
-5.1560698 -1.7298523 0.93191254
-5.0966053 -1.7102768 0.91268992
-5.0043387 -1.7146099 0.92563522
-4.9225488 -1.7265959 0.93170536
-4.8384929 -1.733301 0.93155658
-4.7706704 -1.7278059 0.9331342
-4.6758604 -1.7455164 0.94168484
-4.5898595 -1.7305074 0.94819814
-4.5187654 -1.7529417 0.92819184
-4.4408007 -1.7337432 0.9432447
-4.3512368 -1.7005668 0.95790648
-4.2674742 -1.7515364 0.94347644
-4.2147541 -1.7258748 0.95089811
-4.1040406 -1.7509798 0.93226624
-4.0483761 -1.7363435 0.94587278
-3.9519873 -1.7399772 0.92907512
-3.8731625 -1.7198166 0.93250912
-3.8098512 -1.717744 0.95347679
-3.7068698 -1.7555885 0.92738473
-3.634927 -1.7388119 0.9465434
-3.5780272 -1.7080448 0.95767617
-3.4429133 -1.7583823 0.94022042
-3.3923585 -1.7317204 0.95039278
-3.2338173 -1.7555434 0.92814487
-3.1520958 -1.7426387 0.95046902
-3.1127143 -1.7178285 0.95791042
-2.9179623 -1.7450542 0.93866628
-2.8545997 -1.7285905 0.95432121
-2.7296164 -1.7573379 0.90749913
-2.6013906 -1.7508286 0.94089693
-2.5421128 -1.7432674 0.95586836
-2.2655933 -1.7553718 0.93489242
-2.196048 -1.7264495 0.94907337
-1.8223588 -1.7312143 0.93778151
-1.7498636 -1.7154564 0.95298368
-13.334877 -1.6096008 0.89564633
-11.024975 -1.6052699 0.94316274
-10.805759 -1.6757799 0.91086262
-10.788598 -1.6118996 0.9056946
-10.210205 -1.6343924 0.94704181
-10.098063 -1.6573036 0.92760766
-9.6130695 -1.6638377 0.95819432
-9.4912195 -1.6730061 0.93358171
-9.0766211 -1.665696 0.95488393
-8.541626 -1.6609502 0.92648888
-6.4823728 -1.6738145 0.95790648
-6.2601438 -1.6654394 0.94127387
-6.2269545 -1.6744317 0.93510836
-6.0693998 -1.6768727 0.95023608
-5.8744969 -1.6715835 0.95826387
-5.0777817 -1.642495 0.93453318
-4.9996333 -1.67167 0.94248074
-4.3140302 -1.6753796 0.9598614
-15.759892 -1.5560118 0.89287013
-13.60718 -1.5648599 0.92489558
-12.123768 -1.5597982 0.9392333
-5.073566 -1.5514771 0.90636313
-16.287182 -1.5019723 0.93722367
-13.891201 -1.5161685 0.95547426
-16.449411 -1.4022601 0.95018852
-7.7373915 -1.6843066 0.9673813
-7.4832697 -1.685382 0.96492481
-7.2642117 -1.6846451 0.96621996
-7.0756793 -1.6828954 0.97334087
-7.0390224 -1.6819971 0.96009815
-6.8528576 -1.693863 0.96679467
-6.727457 -1.688625 0.98707861
-6.6804528 -1.69631 0.97285384
-6.6368098 -1.7063799 0.96110284
-6.4679441 -1.6988306 0.96377122
-6.3047466 -1.6872616 0.96696365
-6.1026726 -1.6900977 0.96747392
-5.8611298 -1.700748 0.97404706
-5.5216336 -1.6865247 0.97698879
-5.4723043 -1.6852226 0.97345752
-5.3883677 -1.6838944 0.97110331
-5.3111472 -1.6868938 0.97541934
-5.267777 -1.6985167 0.98640555
-4.9618473 -1.6945025 0.96502811
-4.921526 -1.6899174 0.97104073
-4.8062043 -1.6805605 0.9943397
-4.7539644 -1.7087729 0.96208704
-4.6891975 -1.6961741 0.97339946
-4.6282144 -1.6905521 0.98902124
-4.5188322 -1.7007604 0.96593612
-4.4661288 -1.7027133 0.98443276
-4.3615484 -1.7081056 0.97409964
-4.2845311 -1.6826671 0.97354579
-4.1272845 -1.7019497 0.97223532
-4.0658326 -1.6869119 0.98893404
-3.9488945 -1.7045479 0.96972078
-3.778903 -1.7150903 0.96340883
-3.7463841 -1.6986318 0.97003019
-3.6770625 -1.6816378 0.98989427
-3.5255098 -1.7019247 0.97398698
-3.3146691 -1.7061726 0.970011
-3.2471566 -1.6867863 0.98817599
-3.088764 -1.6994954 0.96196938
-3.0075836 -1.6914536 0.98587203
-2.8201478 -1.7125044 0.96183556
-2.7722459 -1.7028025 0.97435945
-2.510376 -1.7214761 0.96162659
-2.4281971 -1.7036253 0.98178047
-2.1123364 -1.701722 0.9674561
-2.0589287 -1.6829526 0.97901094
-1.6846192 -1.6956824 0.96628553
-10.31095 -1.6063514 0.96423358
-9.6528015 -1.62752 0.96413529
-9.282527 -1.6032748 0.99763995
-9.2065468 -1.6229142 0.98148769
-9.126915 -1.6398313 0.96438527
-8.9076223 -1.6024575 1.0136755
-8.8363771 -1.6177468 0.99686843
-8.7760239 -1.6358036 0.98321271
-8.6944609 -1.6642479 0.96535516
-8.446825 -1.6375358 0.99444866
-8.3475113 -1.6689936 0.9708398
-8.2475777 -1.6035565 1.0257075
-8.1927662 -1.6145048 1.0106788
-8.1381912 -1.6419325 0.99815488
-8.0493269 -1.6685084 0.97561181
-7.8781567 -1.6299759 1.0025588
-7.7844505 -1.6618569 0.97820508
-7.7294626 -1.6126903 1.0332252
-7.6409607 -1.6259989 1.0056144
-7.5621281 -1.6573689 0.98526961
-7.4805441 -1.6367167 0.99188006
-7.3909492 -1.608489 0.99262786
-7.3152523 -1.630933 0.98988855
-7.2425632 -1.636492 1.0026238
-7.1488547 -1.6533817 0.99154967
-7.0825634 -1.6341647 1.0095803
-6.9971056 -1.6371099 1.0020545
-6.9094787 -1.635069 1.0028559
-6.8389587 -1.62915 1.0081066
-6.7580905 -1.6419712 1.003939
-6.6782141 -1.6293011 1.0131327
-6.5891786 -1.6425791 0.99729747
-6.5205817 -1.6422253 0.99564987
-6.4272676 -1.6384758 0.99782729
-6.3534818 -1.6421978 0.99401599
-6.2748117 -1.6336687 0.99333066
-6.1857429 -1.6308216 0.98206609
-6.1274023 -1.6477275 0.9864521
-6.0385103 -1.6262839 1.0060494
-5.9642253 -1.6430222 0.99450731
-5.8871403 -1.6422579 0.99268883
-5.7953391 -1.6311154 1.0002197
-5.7205033 -1.632748 0.99161911
-5.6394086 -1.637978 0.98542762
-5.5609331 -1.6443177 0.98400939
-5.4768796 -1.6396782 0.99108469
-5.4031172 -1.6495657 0.98391515
-5.3210011 -1.6456368 0.98709446
-5.2332692 -1.6482915 0.98747903
-5.1578393 -1.6395431 0.98996061
-5.0982294 -1.6456994 0.99007487
-4.9963598 -1.6336849 0.98902988
-4.9192405 -1.6454952 0.99807131
-4.8469634 -1.6446296 0.99605113
-4.7665076 -1.6360735 1.0106286
-4.6768556 -1.6450647 1.0030353
-4.5947251 -1.6494416 1.0098876
-4.5275846 -1.6394182 1.0141414
-4.4357066 -1.6446611 1.0029601
-4.3611984 -1.6397491 1.0081708
-4.2794552 -1.643978 1.0026089
-4.2068787 -1.6447035 1.0086207
-4.1220994 -1.6399499 1.0172056
-4.0473533 -1.6393602 1.0191108
-3.9500875 -1.6449677 1.0063696
-3.8706739 -1.6620483 0.98435146
-3.7901103 -1.6456925 1.0095162
-3.7203438 -1.6319052 1.0140789
-3.6407671 -1.6516217 0.99486023
-3.5670052 -1.6333723 1.0172074
-3.4899044 -1.6614904 0.99535096
-3.3928919 -1.6583711 1.0097153
-3.3424773 -1.6306837 1.0213659
-3.2104633 -1.6624877 0.99544197
-3.1465425 -1.6530089 1.0150602
-3.0887508 -1.622633 1.0288656
-2.9234049 -1.6600491 1.0070688
-2.8303366 -1.624364 1.0309714
-2.7377129 -1.668031 0.97936898
-2.6144028 -1.6571755 1.014436
-2.5491688 -1.6336075 1.030717
-2.3598971 -1.6775566 0.99732774
-2.2917087 -1.6494695 1.012875
-2.2094328 -1.6254901 1.0330288
-2.0019579 -1.6646032 0.99161619
-1.941396 -1.6465603 1.0052719
-1.8699603 -1.6313419 1.022079
-1.7984703 -1.614767 1.0388861
-1.6327832 -1.6479461 0.97436166
-12.366594 -1.5283105 0.97137648
-11.328661 -1.5432739 0.98967487
-11.207718 -1.5823485 0.97158682
-10.685528 -1.5266142 1.0300107
-10.538989 -1.5506085 1.0038494
-10.445979 -1.5847424 0.9881525
-10.009354 -1.526624 1.0328809
-9.9174595 -1.5536919 1.0150579
-9.7652512 -1.5622315 0.98365563
-9.665946 -1.5829163 0.96413529
-9.408412 -1.551819 1.0232935
-9.3547974 -1.5810248 1.0128421
-8.9460831 -1.5744766 1.0210285
-8.512084 -1.570181 1.0050054
-8.2605476 -1.5736691 1.0257075
-8.0054798 -1.593866 1.0377363
-7.9483733 -1.5995389 1.0201476
-7.7491465 -1.5917107 1.0361316
-7.53127 -1.5904292 1.0392301
-7.4896684 -1.5956924 1.0252495
-7.3211155 -1.5597122 1.0321054
-7.1277671 -1.5855925 1.0376071
-6.7492847 -1.5790465 1.0224186
-6.5814619 -1.5871283 1.0245088
-6.4348111 -1.588755 1.0321158
-6.2678399 -1.5733899 1.0236514
-6.1976428 -1.5705321 1.0080519
-6.0862846 -1.5779613 1.0240726
-6.0749359 -1.58792 1.0264268
-5.934485 -1.5698768 1.0348628
-5.8814082 -1.577538 1.0246369
-5.8240466 -1.5914003 1.0193194
-5.7177281 -1.5743378 1.0266523
-5.6449876 -1.5692284 1.0317061
-5.5568738 -1.5781443 1.0271095
-5.4862132 -1.5895807 1.0308548
-5.3952079 -1.5889746 1.0278755
-5.3174529 -1.5857166 1.02745
-5.2407084 -1.5833212 1.0317062
-5.1597114 -1.5723528 1.0334085
-5.0822668 -1.5641487 1.012435
-5.0135212 -1.5680803 1.0146227
-4.9198928 -1.5882146 1.0319995
-4.7278514 -1.5931129 1.0287809
-4.7020874 -1.5936656 1.0381978
-4.5250216 -1.5926616 1.0371797
-4.1990976 -1.5970117 1.03684
-3.8936501 -1.5854928 1.020105
-14.206623 -1.4656587 0.98959839
-12.86801 -1.4527812 1.0378419
-12.574248 -1.4862897 0.9986164
-11.647638 -1.4718746 1.038771
-11.492067 -1.5099207 1.014869
-5.0759788 -1.4770216 1.0162698
-14.660097 -1.4247072 1.0392334
-5.9846525 -1.3675634 1.0398897
-4.9920311 -1.3617917 1.0353043
-4.8217525 -1.3712167 1.0398897
-4.5483327 -1.3671386 1.0307724
-4.4160671 -1.368892 1.0311352
-4.2803664 -1.3777541 1.0371797
-5.9937572 -1.3588052 1.0372369
-5.8142161 -1.3529749 1.0297974
-5.6007619 -1.3474638 1.0358883
-5.5721374 -1.3385077 1.0216199
-5.2211657 -1.3420978 1.0263761
-5.1879377 -1.3207355 1.011632
-4.9812317 -1.3431994 1.0229137
-4.8216066 -1.3469785 1.0213202
-4.691586 -1.3497888 1.0163838
-7.1205363 -1.6078596 1.0411184
-4.8925281 -1.6098346 1.0553147
-4.3639808 -1.6054519 1.0407348
-4.1566815 -1.6011554 1.0563642
-3.6662016 -1.6018351 1.0446298
-3.486994 -1.6161909 1.0428653
-3.2594712 -1.6158653 1.0480328
-3.0394201 -1.6019738 1.0419444
-2.7596719 -1.608241 1.0512661
-2.5045626 -1.6173934 1.0419885
-2.4564908 -1.6018715 1.0545124
-2.1533916 -1.6086248 1.0468487
-9.499176 -1.5323925 1.0432463
-9.0774889 -1.5342528 1.0514914
-9.0355959 -1.5629271 1.0430878
-8.6918983 -1.5422362 1.0526068
-8.4532423 -1.544094 1.0808126
-8.36203 -1.5623049 1.0551386
-8.1626015 -1.529489 1.0796788
-8.1052971 -1.5386683 1.0620899
-8.0503454 -1.5644879 1.0478836
-7.92588 -1.520332 1.0855404
-7.8803091 -1.5468714 1.0739148
-7.8065586 -1.5740106 1.0528433
-7.6916218 -1.5277333 1.0858324
-7.6370687 -1.5444179 1.0687449
-7.5681553 -1.5666785 1.0477738
-7.4540405 -1.5406851 1.0792828
-7.397624 -1.5361025 1.056108
-7.2995081 -1.5355625 1.0937889
-7.2321601 -1.5473827 1.0692093
-7.176497 -1.5787292 1.0551639
-7.0758371 -1.5381398 1.0756744
-6.9953189 -1.57137 1.052018
-6.9282851 -1.5437145 1.0718567
-6.8426647 -1.5703216 1.0585843
-6.7575774 -1.5447717 1.065071
-6.6820226 -1.5587894 1.0553365
-6.6138301 -1.5552205 1.0701716
-6.5214815 -1.5664169 1.0579726
-6.4455733 -1.5456117 1.0723115
-6.3513989 -1.5534767 1.0583493
-6.2868328 -1.5410409 1.0671065
-6.1962247 -1.5404552 1.0542654
-6.1167779 -1.5604784 1.0579695
-6.0373445 -1.5556413 1.0597322
-5.9678941 -1.5445008 1.07069
-5.8780456 -1.5452554 1.0679691
-5.8068857 -1.5555084 1.0657262
-5.720264 -1.5476885 1.0669155
-5.6350751 -1.5467491 1.0689667
-5.5655918 -1.5487989 1.0636871
-5.4793229 -1.5481924 1.0642067
-5.4037037 -1.544824 1.0589012
-5.3224039 -1.5438778 1.0603541
-5.2386279 -1.5539485 1.0663145
-5.1635256 -1.55317 1.062902
-5.106174 -1.5423502 1.0643759
-4.9817977 -1.5429578 1.0662928
-4.9163766 -1.539893 1.0656343
-4.8448071 -1.5611305 1.0610253
-4.769599 -1.5544058 1.0663499
-4.6763673 -1.5561156 1.0665139
-4.6049113 -1.5593696 1.0652682
-4.5185037 -1.5554996 1.0756123
-4.4455781 -1.5651492 1.0742996
-4.3599691 -1.5579031 1.0678006
-4.2923846 -1.5600935 1.0720692
-4.1985421 -1.5541281 1.0877079
-4.1179867 -1.5641907 1.0810219
-4.0291142 -1.5633012 1.0724596
-3.9660995 -1.5660057 1.0710435
-3.903342 -1.5426143 1.0720732
-3.8066711 -1.5885284 1.0566566
