# .PCD v0.7 - Point Cloud Data file format
VERSION 0.7
FIELDS x y z
SIZE 4 4 4
TYPE F F F
COUNT 1 1 1
WIDTH 1452
HEIGHT 1
VIEWPOINT 0 0 0 1 0 0 0
POINTS 1452
DATA ascii
-8.038866 -0.91861504 -2.2755527
-7.8662782 -0.92795277 -2.2837734
-7.6992326 -0.9232704 -2.2888334
-7.6791415 -0.90138221 -2.2647502
-7.5280423 -0.91552323 -2.2858763
-7.3747091 -0.90991038 -2.2909
-7.0171442 -0.94723749 -2.2619655
-3.731168 -0.90800381 -2.3090501
-3.5859022 -0.92034107 -2.2942386
-3.4484143 -0.94182122 -2.2760048
-3.4305286 -0.90250033 -2.2829559
-3.3007989 -0.95272934 -2.2671516
-3.2767875 -0.9177444 -2.2815552
-3.1247637 -0.91728008 -2.2647502
-3.1151218 -0.91969979 -2.2744761
-2.9511292 -0.93164301 -2.2692654
-2.8018639 -0.95173788 -2.2480536
-2.7673488 -0.91628951 -2.2699668
-2.6019752 -0.93602943 -2.2570338
-2.4190543 -0.92834014 -2.2476115
-2.2120113 -0.90985131 -2.2464652
-1.9844739 -0.88913321 -2.2474194
-1.761282 -0.91850674 -2.242738
-1.7555282 -0.88037193 -2.242738
-17.027832 -0.81092381 -2.3098805
-15.55514 -0.86621189 -2.2948713
-14.430765 -0.81380194 -2.28949
-13.428467 -0.85370171 -2.2611372
-12.687023 -0.81356812 -2.2616665
-12.067337 -0.8513211 -2.2669122
-11.551455 -0.8190099 -2.2767119
-11.071874 -0.84821945 -2.2766314
-10.662764 -0.8475647 -2.2824421
-10.303038 -0.84716833 -2.2846584
-9.9443436 -0.82929057 -2.2736459
-9.6308603 -0.83729172 -2.2698331
-9.3646202 -0.8227523 -2.2762918
-9.335331 -0.8611095 -2.2624242
-9.097703 -0.84463882 -2.2718644
-8.8512411 -0.84300154 -2.2659478
-8.62603 -0.8402124 -2.2647107
-8.4331818 -0.83694839 -2.273788
-8.2411566 -0.8147487 -2.2728972
-8.2303686 -0.85880387 -2.2704186
-8.0614424 -0.83653516 -2.2807086
-7.8715611 -0.84787339 -2.2730601
-7.7089033 -0.83735955 -2.2792001
-7.5407295 -0.84030217 -2.2798266
-7.3948326 -0.8373847 -2.291893
-3.7101011 -0.8403461 -2.3088911
-3.5631397 -0.84403056 -2.2947519
-3.4202156 -0.83890474 -2.2760046
-3.2828915 -0.84733647 -2.257549
-3.2562549 -0.82211745 -2.2786746
-3.1302166 -0.86568224 -2.2480772
-3.10919 -0.83690614 -2.2619712
-2.9408989 -0.85159504 -2.2627034
-2.7630179 -0.84544688 -2.2618032
-2.5814927 -0.84248197 -2.259017
-2.4072778 -0.85512948 -2.2464218
-2.3988783 -0.80280536 -2.2464216
-1.7443113 -0.82351136 -2.2448184
-1.2230363 -0.85768747 -2.2425539
-18.821943 -0.73194456 -2.3062804
-15.579481 -0.76062918 -2.2992744
-13.50252 -0.77321851 -2.2806206
-12.744895 -0.74007249 -2.2782354
-12.072222 -0.78147262 -2.2669122
-11.559772 -0.75481164 -2.2780967
-11.086327 -0.75967366 -2.2796016
-10.668179 -0.76461476 -2.2816494
-10.297522 -0.76899433 -2.27877
-9.9442453 -0.75716126 -2.2700822
-9.6401453 -0.74850708 -2.2698333
-9.3632765 -0.73860192 -2.2703485
-9.3486261 -0.77895862 -2.2644053
-9.1004553 -0.76638114 -2.2677035
-8.8624763 -0.77079248 -2.2670379
-8.6451378 -0.72203112 -2.2669914
-8.6372185 -0.77274841 -2.265851
-8.4400473 -0.75668645 -2.2702186
-8.2574148 -0.75616169 -2.2786808
-8.0805883 -0.72482443 -2.2815681
-8.0682945 -0.765903 -2.276412
-7.8869395 -0.7702617 -2.2739527
-7.7332735 -0.7663933 -2.2892039
-7.560204 -0.75241965 -2.2811437
-7.4117346 -0.76398337 -2.2923896
-7.2590294 -0.76047307 -2.2968047
-7.0587945 -0.77184504 -2.2460585
-3.6921656 -0.7628333 -2.3055961
-3.5427001 -0.75662464 -2.2938964
-3.3972595 -0.76355743 -2.2824593
-3.2580125 -0.77093244 -2.2661915
-3.0778611 -0.76619446 -2.2786443
-2.9210885 -0.76434481 -2.2659173
-2.7517674 -0.76182908 -2.2592249
-2.5659063 -0.74779874 -2.2595124
-2.397485 -0.77090722 -2.2440419
-2.1891315 -0.75904369 -2.2464652
-1.9748888 -0.74448174 -2.2408798
-1.7372725 -0.76602006 -2.2448184
-0.22334671 -0.75741124 -2.2420099
-17.008492 -0.6884501 -2.3052077
-15.571524 -0.65366161 -2.2966325
-14.431252 -0.71904707 -2.2885082
-13.42956 -0.68513322 -2.2589724
-12.672228 -0.65988129 -2.2545655
-12.114201 -0.71362853 -2.2797558
-12.07601 -0.64148235 -2.2656279
-11.559928 -0.69007969 -2.2767119
-11.095849 -0.67044151 -2.2810864
-10.670956 -0.6907208 -2.2805922
-10.297981 -0.665833 -2.2754054
-9.9428749 -0.68520254 -2.2665186
-9.6476936 -0.68206322 -2.2707739
-9.3671055 -0.67614657 -2.2693582
-9.1237526 -0.67054784 -2.2760253
-9.1065903 -0.70820951 -2.2677035
-8.8855753 -0.68131357 -2.2757573
-8.6439943 -0.67038035 -2.26243
-8.45292 -0.67729008 -2.2725983
-8.2614241 -0.68049735 -2.2741365
-8.0967369 -0.68394411 -2.2905912
-7.9230905 -0.66829318 -2.2927015
-7.894577 -0.70902294 -2.2721672
-7.7645359 -0.64032793 -2.3008749
-7.7544556 -0.68299627 -2.2967069
-7.5857315 -0.67391741 -2.2937984
-7.4299307 -0.67986077 -2.2953684
-7.2913785 -0.67839801 -2.3157952
-7.267097 -0.68769264 -2.2891061
-3.6901987 -0.7081759 -2.2921889
-3.6667244 -0.66589272 -2.3118074
-3.524806 -0.68911064 -2.2988577
-3.5105462 -0.65093023 -2.3080964
-3.386687 -0.68224001 -2.2774942
-3.2318604 -0.68182135 -2.2769463
-3.0685227 -0.67769819 -2.2740128
-2.9145935 -0.68554318 -2.2610965
-2.7371111 -0.67888111 -2.2618029
-2.5666087 -0.66330975 -2.2505896
-2.5575783 -0.69447434 -2.260504
-2.3893287 -0.70793486 -2.2440419
-2.1844099 -0.65736061 -2.241904
-18.821266 -0.59129667 -2.3056033
-16.98394 -0.56635332 -2.2997563
-14.426868 -0.62421942 -2.2865446
-13.42878 -0.60091197 -2.25789
-12.678894 -0.58383489 -2.255749
-12.097626 -0.57218242 -2.2720497
-11.540658 -0.62455094 -2.2684028
-11.161966 -0.61366534 -2.3063331
-10.315089 -0.58952767 -2.2812936
-9.9687424 -0.59904164 -2.2766154
-9.6470413 -0.61499667 -2.267952
-9.3870935 -0.6008299 -2.2776127
-9.1228304 -0.59204918 -2.2718644
-9.1132784 -0.63050711 -2.2677035
-8.8949423 -0.59626007 -2.2772105
-8.6549072 -0.60274553 -2.265851
-8.4590673 -0.59714764 -2.271646
-8.2793255 -0.60641384 -2.2823157
-8.0921869 -0.59785092 -2.27899
-8.0758362 -0.63879925 -2.2686777
-7.9307613 -0.58882338 -2.2918086
-7.9085774 -0.63980913 -2.2766311
-7.7727222 -0.57849026 -2.3022645
-7.7560091 -0.6142686 -2.2897596
-7.6070671 -0.58901376 -2.3046012
-7.5952477 -0.60327411 -2.2940385
-7.4546709 -0.58516753 -2.3081787
-7.4393311 -0.62681568 -2.2968581
-7.2936792 -0.61375856 -2.3065567
-7.1492496 -0.59491336 -2.3176398
-3.6600351 -0.6046986 -2.3075657
-3.5065594 -0.59083909 -2.302707
-3.3652651 -0.59875965 -2.2879212
-3.2297175 -0.61058754 -2.2692091
-3.0584242 -0.60438663 -2.2749393
-2.9017231 -0.61298281 -2.2648463
-2.7412865 -0.59381205 -2.2506316
-2.5547316 -0.59449869 -2.2547207
-2.3705692 -0.58203816 -2.2488015
-15.566343 -0.54697645 -2.2948713
-14.456385 -0.53021842 -2.293417
-13.377068 -0.51570421 -2.2427363
-12.677123 -0.50751752 -2.2545655
-12.073076 -0.50143361 -2.2630589
-11.535696 -0.55997354 -2.2656329
-11.190394 -0.55422735 -2.3167286
-10.339087 -0.53887761 -2.2913878
-10.00585 -0.52049947 -2.2932463
-9.6701336 -0.54913378 -2.2782993
-9.4163685 -0.53238267 -2.2921407
-9.1551304 -0.53487241 -2.2895484
-8.8797741 -0.53419477 -2.264858
-8.66605 -0.53487974 -2.2704124
-8.4612932 -0.52218765 -2.2694252
-8.2794933 -0.53067434 -2.2778544
-8.105938 -0.54208136 -2.2867241
-7.9401569 -0.5227406 -2.2953799
-7.7717514 -0.54082632 -2.2980962
-7.7535286 -0.51457489 -2.2786443
-7.6085148 -0.53076053 -2.3002801
-7.4673634 -0.53195453 -2.3162222
-7.3087454 -0.52874887 -2.3127155
-3.653199 -0.53762203 -2.3054447
-3.498312 -0.52138501 -2.303477
-3.374769 -0.52248526 -2.2685571
-3.3547165 -0.52426398 -2.2909
-3.2213135 -0.52602929 -2.2690718
-3.0521531 -0.53564292 -2.2747538
-2.8974407 -0.53415328 -2.2623465
-2.7354507 -0.51948541 -2.2506316
-2.5509603 -0.51477355 -2.2530682
-2.3695846 -0.5183655 -2.2464216
-1.922121 -6.6657891 -2.2332625
-16.685373 -6.0580692 -2.17221
-19.246174 -5.9442205 -2.1809697
-19.237665 -5.7729197 -2.1705649
-2.3264599 -4.8354335 -2.1741607
-2.2046425 -4.712707 -2.1622798
-2.1368735 -4.7087383 -2.1771307
-1.9937155 -4.2546968 -2.237253
-2.31218 -4.0312247 -2.2274578
-3.9036574 -3.9803996 -2.2386508
-11.525802 -3.8924363 -2.1918402
-3.7258191 -3.6188223 -2.2364967
-3.2365532 -3.6185451 -2.2346888
-0.93260479 -3.6412416 -2.218713
-0.35836792 -3.6415577 -2.2220097
-8.9851236 -3.5543451 -2.2291403
-8.5216055 -3.5734978 -2.2326632
-8.0476856 -3.5471792 -2.2124524
-7.6060638 -3.5478718 -2.2148776
-7.5860577 -3.5909636 -2.2287455
-6.5954289 -3.5695693 -2.2321603
-6.4336905 -3.5370486 -2.1776643
-5.3696179 -3.5735309 -2.2373426
-5.3359947 -3.5664649 -2.2327812
-4.4270086 -3.5666139 -2.1842039
-4.3802018 -3.5397122 -2.1765742
-3.8089561 -3.5383539 -2.1699219
-3.3424561 -3.5672922 -2.1772366
-2.8707294 -3.5791793 -2.1861138
-2.4221766 -3.5860353 -2.188117
-1.3732834 -3.5760083 -2.2277396
-0.79167557 -3.5266964 -2.2380192
-0.13977194 -3.3674395 -2.2379358
-2.4493344 -3.3348515 -2.2369099
-0.10846233 -3.3121898 -2.2379358
-11.308948 -3.2192297 -2.2270966
-2.4440489 -3.1580355 -2.1729445
-1.584707 -3.1433949 -2.1921279
-6.6653748 -3.0910342 -2.2345233
-6.6733379 -3.0340607 -2.198828
-6.7606416 -2.9328713 -2.160753
-2.0939386 -2.8895814 -2.2218592
-6.9301815 -2.8588085 -2.1750312
-0.29858017 -2.6619599 -2.2395043
-0.726439 -2.5791743 -2.2356675
-1.4431949 -2.4965818 -2.2397907
-0.67408562 -2.4838321 -2.2388387
-0.25128078 -2.5546167 -2.2395043
-1.0403519 -2.4210448 -2.2375519
-0.65536261 -2.4327502 -2.237253
-0.9979353 -2.3292897 -2.2375519
-0.63719034 -2.3815107 -2.2356675
-0.18442154 -2.3604326 -2.235049
-0.98077536 -2.2816303 -2.2358696
-0.59569025 -2.2813201 -2.2356675
-0.9460156 -2.214045 -2.2383933
-0.58941507 -2.2255688 -2.2293251
-0.5562973 -2.1802826 -2.2356675
-0.12560201 -2.1950116 -2.2343066
-0.91303658 -2.1184072 -2.2358696
-0.10248375 -2.1101956 -2.2320788
-0.87894487 -2.0502539 -2.2392344
-0.077268124 -2.0568931 -2.235049
-1.2103 -1.9566176 -2.2326632
-0.87165761 -1.9723034 -2.2299814
-0.47553587 -1.950096 -2.2356675
-0.084524632 -1.9933814 -2.2246535
-0.060487747 -1.9397486 -2.2276235
-1.1708388 -1.8709643 -2.236227
-0.84039927 -1.8765461 -2.2291403
-0.4439106 -1.8746924 -2.2388387
-0.029850483 -1.8878373 -2.2335639
-1.4559555 -1.7956574 -2.2387912
-1.1440115 -1.805491 -2.2380087
-0.82728624 -1.8014287 -2.224093
-0.43877983 -1.8195802 -2.234082
-0.040512562 -1.7941442 -2.2194557
-1.433223 -1.7104523 -2.2350285
-1.128546 -1.7362313 -2.2344451
-0.81233835 -1.7534648 -2.224093
-0.79093075 -1.7073973 -2.2274578
-0.41971779 -1.7124512 -2.2293251
-0.016603947 -1.7102095 -2.2201982
-1.6905334 -1.6272715 -2.2366698
-1.4191942 -1.6688383 -2.2350285
-1.1038914 -1.6454747 -2.2326632
-0.76151729 -1.637306 -2.2316637
-0.41637993 -1.657428 -2.2245684
-0.3744688 -1.6123263 -2.237253
-0.020706654 -1.6494008 -2.2127728
-1.925921 -1.5516499 -2.2385771
-1.3844035 -1.5646845 -2.2359691
-1.0863144 -1.5527701 -2.2282085
-0.76812649 -1.5573763 -2.2190459
-0.38295031 -1.5544872 -2.2277396
-0.00015592575 -1.5946668 -2.2157428
-4.1268253 -1.4776837 -2.2317424
-1.6446073 -1.490966 -2.2376604
-1.3640642 -1.5019516 -2.2369099
-1.3488183 -1.4605583 -2.2387912
-1.0592365 -1.4871587 -2.2326632
-0.76035094 -1.4817846 -2.2139988
-0.36906418 -1.4837354 -2.2266824
-1.6210029 -1.3909094 -2.2346888
-1.338758 -1.3949785 -2.2350285
-1.068408 -1.4364135 -2.2219722
-1.0363736 -1.3960035 -2.2326632
-0.72187138 -1.4137037 -2.224093
-0.36197615 -1.3933247 -2.2213972
-1.6136696 -1.3503915 -2.2327075
-1.596664 -1.312392 -2.2366698
-1.3161879 -1.2875687 -2.2331471
-1.0269929 -1.3178623 -2.2285056
-0.73581696 -1.359284 -2.2123165
-0.70417547 -1.3147684 -2.2224107
-0.34459195 -1.305203 -2.2213972
-1.582073 -1.2525384 -2.2366698
-1.3065939 -1.244752 -2.2331471
-1.0133133 -1.2328699 -2.2264268
-0.69323802 -1.2402415 -2.2207284
-0.3425436 -1.2326674 -2.2166405
-6.8997335 -1.1497742 -2.2301517
-2.0545959 -1.1698529 -2.2386999
-1.8150879 -1.1631563 -2.2385771
-1.5640012 -1.1723483 -2.2366698
-1.2783628 -1.1608746 -2.2387912
-0.99817467 -1.1642408 -2.2273178
-0.67618847 -1.1667929 -2.2224107
-0.34568977 -1.1504948 -2.2095056
-2.2622716 -1.0894151 -2.2373426
-2.0403373 -1.0622798 -2.2321603
-1.8093948 -1.1053505 -2.2344162
-1.560818 -1.0684832 -2.2267642
-1.2839794 -1.1150889 -2.2312658
-1.2657619 -1.0737708 -2.2369099
-0.99198037 -1.1018003 -2.224942
-0.66579485 -1.0921745 -2.2215695
-0.33185673 -1.0713035 -2.2102981
-2.4526424 -1.0185412 -2.236903
-2.244261 -1.0242277 -2.2396233
-2.0294521 -0.99113762 -2.2299805
-1.7943635 -1.0299886 -2.2344162
-1.5294719 -0.990762 -2.2366698
-1.2688837 -1.0138832 -2.2300117
-0.9872911 -0.99999088 -2.2192993
-0.66927862 -0.99048805 -2.2131577
-0.29459301 -0.98591226 -2.2213972
-7.0050449 -0.92374086 -2.2365146
-2.4299409 -0.92624533 -2.2392826
-2.2501969 -0.95427644 -2.2259393
-2.0066271 -0.94040757 -2.2386999
-1.7876532 -0.9532032 -2.2302551
-1.5266751 -0.93577713 -2.2333679
-1.2648056 -0.91866636 -2.2246814
-0.96284485 -0.88538313 -2.2237539
-0.95094061 -0.9341501 -2.2326632
-0.67955208 -0.91371512 -2.2039046
-0.28979969 -0.91417122 -2.2198117
-2.2239516 -0.83377331 -2.2297404
-2.0038397 -0.81340456 -2.2278006
-1.9922884 -0.85138428 -2.2386999
-1.5215883 -0.86749077 -2.2307265
-1.5163817 -0.82684815 -2.2307265
-1.2530332 -0.8100276 -2.2237406
-0.9717207 -0.837322 -2.2166266
-0.65871191 -0.84081018 -2.2097929
-0.28163719 -0.83380854 -2.2198114
-7.0502105 -0.76360917 -2.2322729
-2.3996191 -0.73861659 -2.2392826
-2.2102783 -0.7676236 -2.2327812
-1.985863 -0.77948976 -2.2365201
-1.750109 -0.72589213 -2.2344162
-1.505967 -0.76613379 -2.2327075
-1.2411036 -0.74531925 -2.2265625
-0.95041156 -0.76904285 -2.2237539
-0.64609909 -0.76674861 -2.2123165
-2.4081209 -0.67396533 -2.2273841
-2.3888927 -0.64418054 -2.2392826
-2.2041435 -0.68928206 -2.2305005
-1.9891899 -0.68867576 -2.2278008
-1.7532129 -0.66776085 -2.2292149
-1.5015683 -0.68419522 -2.2307265
-1.2441483 -0.6792624 -2.2218592
-0.94788742 -0.69882512 -2.2219722
-2.5888119 -0.60138655 -2.228282
-2.3955863 -0.61179554 -2.2321436
-2.1964054 -0.60555601 -2.2305007
-1.9726481 -0.59987301 -2.2336137
-1.7558819 -0.59078234 -2.2240138
-1.5040979 -0.60198236 -2.2257736
-2.571635 -0.54331446 -2.2381964
-2.3875544 -0.54903024 -2.2345233
-2.1933947 -0.53828692 -2.2293601
-1.9803233 -0.52742231 -2.225621
-1.7524986 -0.53349793 -2.2240138
-1.5057712 -0.54045939 -2.2228022
-1.2375336 -0.50481296 -2.2199779
-0.65981674 -0.51635897 -2.1988575
-0.33560181 -0.53570294 -2.1881001
-2.0871713 -6.2197394 -2.0876923
-2.0373626 -6.1648803 -2.0805912
-1.8648007 -6.1781225 -2.1113622
-1.7757432 -6.1862259 -2.1279311
-1.7066276 -6.160852 -2.1326652
-16.47802 -6.0996633 -2.1437709
-1.9630229 -6.1523604 -2.0888758
-1.5899782 -6.0758672 -2.1302981
-1.7313941 -5.9905334 -2.0841417
-2.3180223 -4.7482514 -2.1474292
-6.8368602 -4.7176652 -2.1315627
-2.3067434 -4.6674294 -2.1236677
-2.0652378 -4.4359093 -2.1088171
-6.8779073 -4.3929439 -2.1417887
-6.8200841 -3.9866991 -2.0807588
-2.1655493 -3.9802685 -2.0993075
-3.8513906 -3.5364037 -2.157439
-2.3385775 -3.3146534 -2.1204064
-15.862881 -3.2457137 -2.154902
-15.812996 -3.1148474 -2.1385474
-11.136604 -3.0616803 -2.1513188
-2.4535751 -3.0908637 -2.1447244
-15.681677 -2.9650364 -2.1058385
-11.137152 -2.9887962 -2.1410439
-6.6746149 -2.9656651 -2.153614
-2.4302979 -2.9986989 -2.1208942
-11.218948 -2.8801513 -2.1513188
-11.136806 -2.9161968 -2.130769
-6.7203026 -2.921237 -2.1393359
-6.6961813 -2.9406726 -2.1440952
-2.359237 -2.9315252 -2.125911
-15.712311 -2.8581495 -2.1066172
-11.227676 -2.8117082 -2.144897
-6.7478809 -2.8449345 -2.0988812
-2.3145931 -2.8780754 -2.125911
-15.80298 -2.7651086 -2.1198566
-11.221592 -2.737608 -2.1333377
-15.766407 -2.6424854 -2.1073961
-11.249795 -2.6779163 -2.1346221
-6.8380551 -4.5718422 -2.0676327
-6.9546275 -4.4838276 -2.0474443
-11.288459 -4.441062 -2.0154321
-11.318237 -4.3705177 -2.0111024
-6.8837605 -3.9268167 -2.0638268
-6.6672926 -3.6861727 -2.0345969
-2.18962 -3.7330353 -2.0136862
-6.7178445 -3.2324088 -2.0599527
-2.4480228 -3.1493635 -2.0241864
-6.6435628 -3.0586791 -2.0685725
-6.6688781 -3.0032237 -2.0412045
-6.7424321 -2.9112988 -2.0069942
-6.7064099 -2.9408588 -2.0138364
-2.3110528 -2.9309287 -2.002804
-6.9680405 -2.8730876 -2.0617306
-6.8286867 -2.8793125 -2.0161171
-6.7583561 -2.8025572 -2.0750844
-2.0684919 -2.8495491 -2.0722964
-6.7728543 -2.7686257 -2.0584266
-2.3596292 -2.7623258 -2.0685301
-6.801816 -2.7034352 -2.0274909
-6.7673969 -2.7013097 -2.0132127
-1.5613985 -0.61370873 -2.0506575
-1.5108805 -0.53544724 -2.075115
-2.3178277 -4.5674291 -1.9277269
-6.779675 -4.2656188 -1.9246312
-11.22208 -4.2167153 -1.9645592
-11.236412 -4.1387634 -1.9559
-11.246502 -4.0588737 -1.9461584
-6.783576 -4.0153971 -1.9493484
-2.3056672 -4.0612993 -1.9320922
-11.271929 -3.9893303 -1.9418287
-11.260304 -3.8977289 -1.9255927
-11.283874 -3.8283288 -1.9212631
-6.7803059 -3.7784317 -1.9697601
-2.3106031 -3.745203 -1.9819747
-6.6755328 -3.6047764 -1.9929936
-4.2434511 -3.6341982 -1.9850692
-2.3377142 -3.6454117 -1.9423352
-5.6465054 -3.5690136 -1.9660366
-5.5457692 -3.5854051 -1.9722779
-5.4779477 -3.5860405 -1.9712377
-5.4101496 -3.5835466 -1.9691572
-3.1980529 -3.5514581 -1.9333117
-10.843817 -3.4224424 -1.9362043
-10.858957 -3.3560529 -1.9302869
-11.129162 -3.1245205 -1.9717093
-6.6695042 -3.0515037 -1.9400613
-2.4582345 -3.0817447 -1.9974585
-11.172118 -2.9975564 -1.9669753
-2.4330523 -3.0196147 -1.9858766
-2.0368106 -3.0357604 -1.9952908
-11.24032 -2.8821752 -1.9717093
-11.189058 -2.9322984 -1.9634248
-6.8793797 -2.9154618 -1.9248024
-2.4062736 -2.9597547 -1.9760762
-2.354593 -2.9491851 -1.992113
-2.2952836 -2.8893719 -1.9956766
-11.266518 -2.8208761 -1.9717093
-6.7564282 -2.8423095 -1.9693632
-2.2884314 -2.8410537 -1.9832036
-11.214264 -2.727493 -1.9456723
-2.3329895 -2.7531145 -1.9386573
-2.2994676 -2.7274034 -1.9440029
-11.231738 -2.6636598 -1.9433054
-11.273478 -2.6093211 -1.9492228
-2.3389609 -4.4477358 -1.8875659
-2.3121591 -4.394578 -1.8778719
-15.761105 -4.2920237 -1.9040694
-2.3045981 -4.3176403 -1.8570989
-15.779621 -4.1751304 -1.9000067
-6.7945256 -4.1793475 -1.8893014
-15.770838 -4.0490069 -1.8912041
-6.799789 -3.9439778 -1.9190569
-2.3079114 -3.9806232 -1.9068458
-15.74192 -3.9170666 -1.8790158
-2.280663 -3.8980212 -1.8890247
-6.0007634 -3.362 -1.8703353
-4.8831878 -3.3671365 -1.8640939
-5.8667245 -3.3372593 -1.8412088
-15.744081 -3.2050622 -1.8431283
-13.256468 -3.2577548 -1.890671
-10.752127 -3.2245963 -1.8817633
-9.9879169 -3.272826 -1.8443545
-6.6714778 -2.9836965 -1.9008241
-2.4261818 -2.9912076 -1.8438774
-2.3795176 -2.9765906 -1.855654
-6.7314596 -2.9331071 -1.888835
-6.6930289 -2.9582179 -1.8921047
-2.3577049 -2.9401121 -1.8522893
-2.2945085 -2.9383163 -1.8741602
-6.8195357 -2.8723576 -1.8812054
-6.7521505 -2.8749235 -1.8615869
-2.3069406 -2.8735363 -1.8506069
-6.7634792 -2.677954 -1.8724345
-1.8196232 -0.55832422 -1.9114386
-14.655554 -5.0313997 -1.7815101
-6.8097229 -4.3309336 -1.8234167
-6.7774739 -4.3732724 -1.8361014
-11.247537 -4.3150344 -1.7887868
-11.290239 -4.1664033 -1.7770056
-6.8096857 -4.2021475 -1.7710925
-2.3029845 -4.2351236 -1.8335563
-2.3003864 -4.1559238 -1.8113985
-4.3030148 -3.3639424 -1.8285618
-3.7660756 -3.363076 -1.8267784
-3.2820823 -3.3612578 -1.8317461
-2.4191132 -3.3622668 -1.829759
-10.50704 -3.3033054 -1.8273224
-9.9221506 -3.2979524 -1.8302265
-9.3959465 -3.3025293 -1.8335563
-8.9139547 -3.2808352 -1.8296216
-8.8547993 -3.2933846 -1.8147707
-8.4199343 -3.3073111 -1.8250023
-8.0098791 -3.2885449 -1.8220067
-7.9575329 -3.2910678 -1.8068653
-7.6094036 -3.2947898 -1.8317461
-7.5572548 -3.2888954 -1.8139275
-6.6775331 -3.2881241 -1.8265806
-6.6210299 -3.3270807 -1.8345051
-6.489501 -3.3111768 -1.7988452
-6.4630952 -3.3355179 -1.8067696
-5.9425735 -3.3122206 -1.8339272
-5.8974175 -3.3288383 -1.8391284
-5.8013783 -3.3259459 -1.8287262
-5.7204909 -3.3100379 -1.8131226
-5.6747732 -3.3232498 -1.8183237
-5.5808311 -3.3235934 -1.8141629
-5.362865 -3.3049383 -1.7995996
-5.3165531 -3.3005352 -1.7975192
-5.2390428 -3.3018177 -1.800293
-5.15979 -3.322773 -1.8162433
-5.0808058 -3.3267171 -1.8231782
-5.0018711 -3.3264513 -1.8287262
-4.9545856 -3.3232393 -1.8308065
-4.4253597 -3.3143847 -1.7790341
-4.3865323 -3.3270431 -1.7929019
-4.2715139 -3.3522897 -1.8285618
-4.2207241 -3.3438656 -1.8345051
-3.866734 -3.3244679 -1.7835076
-3.7311823 -3.3519709 -1.830541
-3.4249263 -3.3544774 -1.7889816
-2.9611797 -3.3201256 -1.7816298
-2.8812344 -3.3528118 -1.8169595
-2.5044887 -3.3379359 -1.7964618
-1.52211 -3.3406918 -1.8072439
-12.977734 -3.2451699 -1.8307896
-11.253761 -3.2545578 -1.8368357
-7.149045 -3.2689722 -1.813609
-6.0255241 -3.2486548 -1.8058411
-4.9321384 -3.2644408 -1.7975192
-4.8791623 -3.2103093 -1.7704731
-3.7312903 -3.2791226 -1.796677
-2.8900676 -3.2794223 -1.7883593
-15.704815 -3.0784237 -1.8309401
-2.5292661 -2.9539363 -1.796771
-10.715517 -2.8558276 -1.8202214
-6.7543044 -2.8165278 -1.8288893
-11.240396 -2.7322326 -1.772974
-15.543465 -2.6973991 -1.7882814
-2.3473849 -2.6847444 -1.7816298
-2.3085763 -2.6635222 -1.7900416
-6.7710104 -2.6084657 -1.833663
-2.3225839 -2.6031528 -1.7681708
-15.767893 -2.521631 -1.819429
-11.279858 -2.5355308 -1.7632325
-1.7912781 -0.59475255 -1.7996727
-1.7771986 -0.53857619 -1.8050183
-7.1492782 -5.0789137 -1.7094958
-3.6249387 -5.0976167 -1.7184863
-14.326097 -4.9827828 -1.7273403
-12.748137 -4.9899149 -1.7250119
-11.437838 -5.0182528 -1.7224745
-11.263091 -4.9820538 -1.6863694
-10.285883 -5.0255814 -1.7122086
-8.2840347 -5.0087299 -1.6971376
-2.6251037 -5.0346251 -1.686486
-11.27091 -4.067173 -1.7593336
-6.8071113 -4.0738115 -1.7187685
-11.279835 -3.9871323 -1.7504977
-11.251221 -3.8852565 -1.7308623
-11.224466 -3.786351 -1.7122086
-2.382163 -3.2826688 -1.6825984
-6.0440474 -3.1220121 -1.7330248
-4.8608875 -3.1443167 -1.7330248
-7.8405809 -3.0406413 -1.6840523
-4.8487134 -3.0548291 -1.6810132
-2.3572767 -2.8226993 -1.6928706
-15.207994 -2.7282398 -1.7334344
-14.945633 -2.7707331 -1.6914529
-11.629059 -2.7336297 -1.6886461
-11.069575 -2.7321045 -1.7285956
-10.924151 -2.7393701 -1.6917939
-10.369171 -2.7564721 -1.7101561
-9.7677345 -2.7611194 -1.6915146
-9.4050665 -2.7337105 -1.7199976
-9.3011713 -2.7649469 -1.6932236
-8.9217234 -2.7369938 -1.7011619
-8.8518715 -2.7697198 -1.6855685
-8.5144749 -2.7398212 -1.6949848
-8.47194 -2.758708 -1.6854713
-8.1196947 -2.7553492 -1.6832111
-7.42554 -2.7699428 -1.6819154
-7.1672158 -2.7469935 -1.6978087
-6.8383222 -2.7937365 -1.7267834
-6.7640057 -2.7824733 -1.6983504
-5.7813678 -2.7416477 -1.6808578
-1.5403614 -2.7843094 -1.6839913
-13.881475 -2.6973386 -1.7468179
-13.558588 -2.7002263 -1.6852938
-12.688189 -2.7054269 -1.7286386
-12.470722 -2.7172031 -1.6828469
-9.7927456 -2.7152479 -1.6915146
-11.191935 -2.5721543 -1.7437493
-6.75423 -2.6064308 -1.710451
-11.284304 -2.4673207 -1.7578205
-6.7174263 -6.8485785 -1.6788284
-10.139587 -4.9816341 -1.6778467
-8.2054348 -4.9896307 -1.6793851
-8.1450405 -4.9990129 -1.672284
-7.0587993 -4.9828453 -1.668396
-3.8876815 -4.9769449 -1.6504148
-3.8016086 -4.9919434 -1.6645428
-3.7185929 -4.9948368 -1.6748178
-1.7756069 -5.0242238 -1.662569
-1.6885958 -5.0343056 -1.6798875
-6.9878817 -4.9355283 -1.6452773
-4.0212531 -4.8879905 -1.6080306
-3.9578598 -4.9238834 -1.6260117
-2.8676174 -4.9487782 -1.6261276
-13.807316 -4.8258977 -1.6359288
-11.318361 -4.8276448 -1.6749214
-2.3440335 -4.7404165 -1.6568986
-11.245751 -4.6772094 -1.6414583
-11.262303 -4.5951581 -1.6335328
-6.7830982 -4.1152329 -1.603889
-2.4958663 -4.0805235 -1.6028931
-2.4050803 -4.1151304 -1.6311492
-15.773174 -4.0437198 -1.6081256
-2.3716977 -4.0369186 -1.6176634
-15.770119 -3.9207184 -1.6017671
-6.7926702 -3.9220128 -1.6553453
-2.3201447 -3.9816413 -1.6144525
-6.8163013 -3.8731606 -1.6394894
-6.8376589 -3.8208153 -1.6220481
-11.276319 -3.2593632 -1.6601747
-11.247084 -3.1690407 -1.6434846
-2.4646213 -3.1433706 -1.6202248
-11.153421 -3.0500007 -1.6091226
-4.2837019 -3.0583422 -1.6700732
-2.6487617 -3.0725777 -1.6712011
-2.4681373 -3.0820937 -1.6024039
-11.153162 -2.9767179 -1.6012685
-8.6279831 -2.9854958 -1.6662624
-8.2219486 -2.9723163 -1.6632732
-7.4200301 -2.984458 -1.6517788
-7.0318389 -3.0097911 -1.663102
-6.597218 -2.989253 -1.6522433
-6.0544519 -2.9789188 -1.6498063
-4.8225708 -3.038887 -1.6747719
-4.7893891 -3.0116539 -1.6629826
-4.2556596 -3.0201311 -1.6562055
-3.8290932 -3.020277 -1.6511869
-3.450686 -3.0017288 -1.637524
-3.0650616 -3.0181186 -1.6436754
-2.6546855 -3.0103948 -1.6505885
-9.0751858 -2.9195702 -1.6549091
-8.6467018 -2.9445915 -1.6618072
-7.8020368 -2.9430552 -1.6386284
-7.4320459 -2.9434276 -1.6393058
-7.0258088 -2.9387496 -1.629238
-6.0860577 -2.9320214 -1.6269213
-4.7443771 -2.9563258 -1.6366301
-7.1624746 -2.800035 -1.6085433
-6.9240265 -2.8272696 -1.6581866
-6.8747349 -2.8043711 -1.6324322
-6.5843773 -2.8131535 -1.6643696
-6.5198493 -2.8092988 -1.6456455
-6.4572377 -2.8072395 -1.6290017
-6.1117134 -2.8045287 -1.6610413
-6.0476589 -2.8238997 -1.6621311
-5.9534912 -2.8322802 -1.6530484
-5.881053 -2.8086698 -1.6283436
-5.7888584 -2.8129392 -1.6207142
-5.6824307 -2.8022196 -1.6043652
-5.1527081 -2.8144047 -1.6098149
-5.06006 -2.8219969 -1.621804
-5.007093 -2.8219645 -1.6268905
-4.9291368 -2.8392746 -1.6466541
-4.8426657 -2.8371727 -1.6566815
-4.7554541 -2.8333306 -1.6675808
-4.7019591 -2.8119056 -1.663221
-4.5025654 -2.8264356 -1.6040362
-4.4409595 -2.8324327 -1.6206799
-4.3566146 -2.8538752 -1.6518868
-4.2881279 -2.8331201 -1.65688
-4.2099371 -2.8203785 -1.6699175
-3.9712009 -2.8447101 -1.6390358
-3.8888378 -2.8255186 -1.6535639
-3.8236108 -2.8149316 -1.6680921
-3.6395988 -2.8296666 -1.6207719
-3.5492435 -2.8447742 -1.6555767
-3.4966481 -2.8153031 -1.6599665
-3.3179045 -2.8383923 -1.6143599
-3.2462888 -2.8432522 -1.6393058
-3.1653643 -2.8387935 -1.6642518
-2.9868028 -2.8324125 -1.6049809
-2.8992836 -2.8428187 -1.636946
-2.8369379 -2.8259854 -1.6520873
-2.7692301 -2.81264 -1.6705933
-2.6142349 -2.8320255 -1.610949
-2.5269146 -2.8298411 -1.6386967
-2.4587634 -2.8092549 -1.6553453
-2.2468843 -2.8294759 -1.603889
-2.1769409 -2.8302977 -1.6261653
-2.1036732 -2.8321574 -1.6499265
-2.0330076 -2.8305476 -1.6722028
-1.5912876 -2.8083122 -1.6729124
-11.47391 -2.7474778 -1.6533023
-11.261702 -2.7349589 -1.6022502
-10.807356 -2.7563794 -1.6636515
-10.680317 -2.766402 -1.6322619
-10.23764 -2.755635 -1.6734675
-10.113489 -2.7557895 -1.6391461
-10.016956 -2.7677915 -1.6142926
-9.6894932 -2.7768784 -1.6709647
-9.5655251 -2.7646687 -1.6324337
-9.4748631 -2.7694771 -1.6067462
-9.1985397 -2.7755332 -1.6632184
-9.1101036 -2.7741251 -1.6355211
-9.0283566 -2.7753077 -1.6105936
-8.7901173 -2.7797718 -1.6677475
-8.6844254 -2.7828274 -1.6343333
-8.4293528 -2.7769678 -1.6759578
-8.366827 -2.7783206 -1.6553453
-8.2821054 -2.7853527 -1.6291831
-8.0354271 -2.780973 -1.6621815
-7.9574876 -2.7846107 -1.636946
-7.8840342 -2.7900281 -1.614234
-7.7720585 -2.7487035 -1.6785066
-7.7158332 -2.7749898 -1.6684095
-7.6414409 -2.789063 -1.6482151
-7.5694466 -2.7866445 -1.6232691
-7.4924426 -2.7656345 -1.6273088
-7.3844271 -2.771908 -1.6687461
-7.3144093 -2.7887051 -1.6524411
-7.2388492 -2.7964478 -1.6311194
-7.1922169 -2.7871318 -1.612306
-7.0740337 -2.7496395 -1.668092
-6.822576 -2.7747219 -1.6027156
-6.6753836 -2.7711053 -1.66645
-6.6206183 -2.7896256 -1.6612489
-6.4169579 -2.7835014 -1.6061167
-6.2717743 -2.7622802 -1.6672174
-6.1892405 -2.7834117 -1.6627852
-6.1084895 -2.7930961 -1.6534119
-6.0003204 -2.7996044 -1.6392428
-5.8126597 -2.7971606 -1.6130847
-5.4775276 -2.7387521 -1.6588112
-5.4025292 -2.7432947 -1.6610919
-5.0937877 -2.773737 -1.6230879
-4.0716939 -2.7542381 -1.6726915
-3.7819998 -2.7669394 -1.6581866
-3.4458079 -2.7918496 -1.6668648
-3.4382193 -2.7493894 -1.651814
-3.1361737 -2.7339087 -1.6357421
-16.488445 -2.6664963 -1.6543692
-13.289223 -2.7123785 -1.6346726
-8.1420269 -2.6993725 -1.6739581
-7.7894135 -2.7161722 -1.673161
-7.4595222 -2.7083805 -1.6687461
-7.0810375 -2.6808157 -1.6383755
-6.3518329 -2.6854861 -1.6392428
-5.7262645 -2.7132127 -1.6557703
-5.6467042 -2.6732769 -1.6215602
-5.5609832 -2.6741233 -1.6169988
-5.3171954 -2.6749322 -1.6147182
-5.2313414 -2.6791451 -1.6208
-5.1557364 -2.6966627 -1.637525
-4.5546689 -2.6941452 -1.6196241
-4.1425014 -2.7129259 -1.630042
-11.500973 -2.6116619 -1.6474117
-2.313391 -2.5679533 -1.641075
-6.7613058 -2.5227489 -1.6664908
-1.8129575 -0.60771364 -1.6672287
-1.7992926 -0.53311968 -1.6714345
-9.8684998 -4.8091493 -1.5983232
-3.0690651 -4.8010974 -1.5563011
-3.0081182 -4.8033729 -1.5657692
-2.0086355 -4.8195767 -1.5770594
-13.458942 -4.7493525 -1.5770191
-12.119154 -4.792253 -1.5988486
-10.907612 -4.7956696 -1.5974277
-10.758405 -4.7686977 -1.567487
-10.64917 -4.7717791 -1.5489942
-9.7618084 -4.7948108 -1.5767242
-9.6424799 -4.7647538 -1.5502164
-8.7486782 -4.7601223 -1.5564938
-8.6701622 -4.7516727 -1.5413401
-6.7291517 -4.7802949 -1.5682151
-6.6700802 -4.7502952 -1.5528027
-6.5904088 -4.7312441 -1.5393168
-4.2608671 -4.7547021 -1.5425277
-4.1842833 -4.7635942 -1.5521605
-4.1007466 -4.7931018 -1.5694995
-3.1383846 -4.7810197 -1.5409157
-15.156109 -4.6529593 -1.5572574
-14.944708 -4.6796722 -1.5306673
-13.199133 -4.7141504 -1.5350375
-6.7743711 -4.6830249 -1.5412434
-12.020308 -4.6279554 -1.5645819
-11.240282 -4.043498 -1.5595615
-6.7947922 -4.027616 -1.5727023
-11.322529 -3.9664145 -1.566166
-6.8156333 -3.9678447 -1.5533962
-11.326523 -3.8423805 -1.5525166
-6.8381562 -3.9149337 -1.5370603
-2.312047 -3.9148307 -1.59904
-15.758118 -3.7956891 -1.5942525
-2.3376393 -3.8113685 -1.5669308
-11.274832 -3.7295425 -1.5296206
-15.771023 -3.6797695 -1.5907842
-11.289486 -3.6563778 -1.5243371
-15.790197 -3.5663037 -1.5884719
-2.3432143 -3.3267498 -1.5745872
-15.706751 -3.1889517 -1.5613037
-15.71678 -3.0758123 -1.5584135
-6.6647263 -3.0708873 -1.5991366
-6.6259842 -3.0614674 -1.5859672
-6.6917686 -2.9835317 -1.5633912
-2.4322095 -3.0016887 -1.5914142
-15.698715 -2.9559734 -1.551477
-11.16972 -2.9116087 -1.5983232
-6.9151716 -2.9397907 -1.5991366
-6.8652115 -2.9156663 -1.5746793
-6.7256947 -2.91519 -1.5389338
-2.398613 -2.9206824 -1.5801277
-15.729286 -2.8489168 -1.552055
-11.096539 -2.8080342 -1.5708336
-6.987937 -2.8206196 -1.5652726
-5.3216019 -2.8037627 -1.5956459
-4.7352138 -2.8103931 -1.5520246
-4.6918936 -2.8160174 -1.562427
-4.5969515 -2.8212159 -1.5823994
-4.5330677 -2.8228016 -1.5957143
-4.2645521 -2.8073344 -1.5432824
-4.1923356 -2.812881 -1.5638859
-4.1172047 -2.8142858 -1.5838951
-4.0541654 -2.8081992 -1.5977628
-3.8796318 -2.8144624 -1.5433235
-3.8017035 -2.8138824 -1.5652726
-3.7227287 -2.8207784 -1.5916113
-3.5456448 -2.8179753 -1.5359583
-3.4916735 -2.8082435 -1.5484313
-3.3921573 -2.8275764 -1.5867412
-3.2041168 -2.8068242 -1.5275919
-3.1393647 -2.8265791 -1.5545099
-3.0764372 -2.8425882 -1.5797454
-3.0379517 -2.8312616 -1.5881572
-2.8081157 -2.8096061 -1.5427691
-2.74753 -2.8148277 -1.5633817
-2.68927 -2.8165743 -1.5824085
-2.4060104 -2.8604753 -1.5623066
-2.3712726 -2.8360543 -1.566762
-2.3135567 -2.8297913 -1.5830978
-1.9472377 -2.8438773 -1.5718175
-15.7626 -2.7423961 -1.5532111
-14.351927 -2.7202172 -1.5905615
-13.065483 -2.733129 -1.593397
-12.026558 -2.7239575 -1.5886216
-11.887897 -2.7512338 -1.5613227
-11.189915 -2.7767239 -1.5894872
-10.497917 -2.7478118 -1.5835538
-9.8735695 -2.7527287 -1.5728701
-9.754447 -2.7478385 -1.5397322
-9.3489618 -2.7510059 -1.5669308
-9.2528496 -2.7481861 -1.5386746
-8.9377069 -2.7686927 -1.5815115
-8.7916412 -2.7745981 -1.5385808
-8.5705538 -2.7767038 -1.5964636
-8.4923086 -2.7685847 -1.5697321
-8.1811628 -2.7761626 -1.5935076
-8.1062498 -2.7611806 -1.5649673
-8.059123 -2.7696159 -1.5522826
-7.959919 -2.7792718 -1.5237422
-7.7981987 -2.7810702 -1.5831101
-7.7246461 -2.7816162 -1.559557
-7.4760933 -2.7825122 -1.5911957
-7.4148273 -2.7871509 -1.5733773
-7.3494229 -2.7850192 -1.5519949
-7.0737534 -2.7288606 -1.5502218
-6.7607822 -2.7846348 -1.5901686
-6.6760683 -2.7805524 -1.5650746
-6.6028614 -2.794317 -1.5531878
-6.5410819 -2.7970574 -1.5393201
-6.3587251 -2.7861309 -1.5943273
-6.2697983 -2.7818196 -1.5728292
-6.1863294 -2.7873533 -1.5596529
-6.112009 -2.7721925 -1.5374614
-6.0747614 -2.7864127 -1.5395418
-5.7187462 -2.7808185 -1.593466
-5.6294823 -2.7908075 -1.5934662
-5.5518889 -2.7845409 -1.5854734
-5.4752288 -2.7825222 -1.5818402
-5.3987484 -2.7859204 -1.5832934
-5.3222847 -2.7818401 -1.5814769
-5.2457037 -2.7821493 -1.5840201
-5.193006 -2.7996387 -1.5978258
-5.1173248 -2.781934 -1.5912862
-4.6552758 -2.7981031 -1.558266
-4.3003182 -2.7969031 -1.5294147
-2.0852418 -2.7974241 -1.5205777
-16.073145 -2.696641 -1.5959866
-6.76437 -2.5268586 -1.5645075
-15.78216 -2.4057243 -1.5456965
-11.268837 -2.4559727 -1.5786878
-6.7650528 -2.4616659 -1.53122
-11.217303 -2.3689704 -1.5590523
-15.756432 -2.2881515 -1.5387599
-1.8781183 -0.62717795 -1.5253277
-1.7524815 -0.5858916 -1.5781803
-1.7647705 -0.52143288 -1.5713096
-6.8031955 -6.9008999 -1.5120084
-8.0997438 -4.8060522 -1.4644896
-10.074432 -4.7257867 -1.4450821
-9.1464033 -4.7738647 -1.4677477
-8.1780252 -4.7257781 -1.4569128
-8.1239319 -4.74154 -1.4525832
-7.515573 -4.7340817 -1.5077777
-7.4137669 -4.7565742 -1.5006768
-7.1591988 -4.7347455 -1.4633965
-3.7942896 -4.7281904 -1.4444605
-3.714082 -4.7328196 -1.4545202
-3.6375914 -4.7252188 -1.4610295
-3.5549994 -4.7305207 -1.4722728
-3.5031486 -4.7249823 -1.4770067
-2.7597752 -4.7631445 -1.4455476
-2.6715157 -4.7523093 -1.4558303
-2.6111267 -4.7462583 -1.4634072
-2.5526621 -4.7361917 -1.4699016
-2.4246433 -4.7297497 -1.4883025
-2.3613653 -4.7236509 -1.4969616
-1.7258762 -4.7534699 -1.4520392
-1.6141369 -4.7452617 -1.4687294
-1.5478275 -4.7286668 -1.4765836
-14.658504 -4.6673107 -1.4919381
-12.951229 -4.679882 -1.4950873
-12.769506 -4.6788502 -1.4680023
-11.364491 -4.6628118 -1.4610033
-11.284292 -4.6993833 -1.4524367
-10.439905 -4.6865335 -1.5005605
-10.347324 -4.6978598 -1.4864708
-10.255064 -4.7077289 -1.472381
-10.154514 -4.7082362 -1.4556494
-9.4631481 -4.6677423 -1.5011278
-9.386178 -4.6758351 -1.4893466
-9.3094883 -4.6827936 -1.4775653
-9.248498 -4.706059 -1.4716747
-9.1646194 -4.7021308 -1.4569482
-8.5118389 -4.6788993 -1.4985852
-8.4247732 -4.7004585 -1.4893848
-8.3595657 -4.7032342 -1.4796432
-8.2967653 -4.7083316 -1.470984
-8.2383795 -4.7190523 -1.4644896
-7.5606704 -4.672133 -1.4967316
-7.3059425 -4.7001085 -1.4710892
-7.2329698 -4.7189984 -1.4675387
-7.0715961 -4.7137609 -1.4474193
-6.4956808 -4.6485267 -1.5039966
-6.4231939 -4.6448784 -1.4969326
-6.3576608 -4.6697268 -1.5001435
-6.2900505 -4.6860342 -1.5007857
-6.1969767 -4.6925488 -1.4969327
-6.1265202 -4.6915088 -1.4924374
-6.0550823 -4.6817298 -1.4853733
-5.963325 -4.686975 -1.4828045
-5.8719454 -4.6940575 -1.4815202
-5.8034549 -4.699111 -1.480878
-5.7339253 -4.689744 -1.4757406
-5.6428514 -4.6938953 -1.4750984
-5.5519786 -4.7018137 -1.4763827
-5.4834862 -4.6980424 -1.4744562
-5.415134 -4.7025456 -1.4757406
-5.323905 -4.7094851 -1.4783093
-5.2325411 -4.708827 -1.4789515
-5.1642051 -4.7038279 -1.4783093
-5.095181 -4.7089739 -1.4815202
-5.0049906 -4.6903172 -1.4776671
-4.9118681 -4.7017984 -1.4847311
-4.8430834 -4.6974111 -1.4860154
-4.7740154 -4.6936851 -1.487942
-4.6807494 -4.6945782 -1.4930797
-4.58815 -4.6878662 -1.4962904
-4.5178752 -4.6857824 -1.5001435
-4.4531279 -4.6565289 -1.4950061
-4.3352652 -4.6523943 -1.5027122
-3.4543266 -4.7118583 -1.4793737
-3.3991985 -4.7120819 -1.4864748
-3.3324559 -4.6963005 -1.4908142
-3.2495589 -4.6744523 -1.4959427
-2.5026257 -4.7125497 -1.4720664
-2.3068106 -4.7041483 -1.5012913
-7.4061947 -4.6211176 -1.4616213
-4.3873491 -4.6338148 -1.4924374
-2.2930658 -4.6278987 -1.4861376
-11.607515 -4.5480647 -1.4874821
-6.7847161 -4.488481 -1.4795936
-2.2966416 -4.5301995 -1.4634072
-2.3018203 -4.0897379 -1.5042272
-2.3146617 -3.9958386 -1.4793737
-6.8169622 -3.759063 -1.4761719
-6.8189726 -3.6655037 -1.4420151
-11.279299 -3.5701544 -1.5128891
-2.3417881 -3.3343842 -1.4487687
-2.2911682 -3.2898078 -1.4506953
-11.251593 -3.2433076 -1.4732616
-6.7278519 -3.2224183 -1.4670266
-6.6977005 -3.2361655 -1.4670266
-2.2551408 -3.2317326 -1.4462
-11.239382 -3.1615608 -1.4626943
-6.8265581 -3.1604109 -1.4611382
-6.7376156 -3.1657426 -1.4451557
-2.4320338 -3.1509058 -1.5060365
-11.194309 -3.0654845 -1.4442015
-6.7209115 -3.0486991 -1.4949757
-6.6882024 -3.0901625 -1.5065577
-2.4450767 -3.0520015 -1.4776469
-6.8895311 -2.9635444 -1.4967575
-6.7153311 -2.967521 -1.4575567
-2.4328976 -2.9879882 -1.4651833
-2.3502727 -2.967628 -1.4831864
-6.9204288 -2.9539886 -1.5003211
-2.3154089 -2.9146442 -1.4804167
-6.7543912 -2.8412635 -1.5113407
-2.266633 -2.8728957 -1.4845712
-2.1350157 -2.8139179 -1.5094987
-2.0714929 -2.7014854 -1.5039593
-2.3175688 -2.5714841 -1.5192393
-6.7732296 -2.5055213 -1.4571042
-2.3309033 -2.513406 -1.5014184
-6.7757826 -2.4301584 -1.5187372
-2.3328805 -2.4642844 -1.4895376
-1.7615509 -0.60314906 -1.4583509
-1.7553916 -0.56525278 -1.459836
-1.7681766 -0.52635497 -1.4538957
-8.7984161 -4.7217498 -1.401969
-7.7128944 -4.7722783 -1.4027927
-6.8291421 -4.7589173 -1.4355843
-6.7524567 -4.7570028 -1.4278915
-6.6739979 -4.746583 -1.4178318
-6.604804 -4.7659812 -1.4178318
-6.5050869 -4.7624488 -1.4089556
-6.4230146 -4.7253814 -1.3917948
-6.3541889 -4.7408419 -1.3917948
-6.2798076 -4.7291336 -1.3835104
-6.1852083 -4.7315545 -1.3787763
-5.9737625 -4.73141 -1.3687166
-4.8443112 -4.7241707 -1.3657578
-4.7494621 -4.734251 -1.3728588
-4.6552286 -4.7347336 -1.3775928
-4.5606909 -4.7331853 -1.3823268
-4.5102901 -4.7466259 -1.3894278
-4.4376888 -4.7488475 -1.3947536
-4.3673768 -4.7388263 -1.3965288
-4.2878008 -4.7646017 -1.4101391
-4.1891084 -4.7643156 -1.4178318
-4.1177278 -4.7521372 -1.4201988
-4.0408192 -4.7569332 -1.4284832
-3.9658868 -4.7532845 -1.4344008
-3.8931811 -4.7409906 -1.4379512
-3.2314227 -4.7204857 -1.371403
-3.1717935 -4.724988 -1.3800622
-3.1011341 -4.7491956 -1.3952159
-3.0056193 -4.7615047 -1.4109108
-2.9149523 -4.7620502 -1.4233583
-2.859262 -4.752461 -1.4287703
-1.8661711 -4.7232718 -1.4235679
-12.575131 -4.6663709 -1.4382089
-12.263065 -4.6769223 -1.3935188
-11.1539 -4.696907 -1.4314095
-10.983843 -4.6610146 -1.4002579
-9.9663048 -4.7151799 -1.4257087
-9.8477488 -4.6918926 -1.4028127
-9.7136106 -4.6500793 -1.3746332
-8.696105 -4.6830287 -1.3784065
-8.6088762 -4.6613164 -1.3607346
-7.6192408 -4.7036257 -1.3735678
-7.5666771 -4.712831 -1.3692383
-6.2239146 -4.6855545 -1.3669413
-6.1101704 -4.7055702 -1.3669413
-6.0399718 -4.7049127 -1.3633908
-4.8000998 -4.7067561 -1.3622073
-4.7059889 -4.7121043 -1.3681248
-4.6120701 -4.7116537 -1.3728588
-2.2136874 -4.6971726 -1.3646617
-14.227283 -4.5793281 -1.4295092
-14.026253 -4.5946431 -1.4040751
-13.787024 -4.5865893 -1.3722825
-12.354992 -4.6337624 -1.4029984
-11.239552 -4.4800448 -1.4197277
-6.959341 -4.5519156 -1.3882443
-6.79983 -4.5191345 -1.3622073
-11.253439 -4.398582 -1.4127185
-2.3426676 -3.8129869 -1.4308503
-2.3168058 -3.7694304 -1.4261162
-2.301873 -3.7144701 -1.4166483
-2.3217797 -3.6233895 -1.3917948
-2.3511868 -3.5248332 -1.3633908
-6.7847509 -3.4941072 -1.3737012
-6.7550545 -3.2959139 -1.400067
-6.7849336 -3.2535741 -1.3889679
-2.2448733 -3.1809328 -1.4372095
-6.7463388 -3.1091824 -1.423285
-2.2808583 -3.0902333 -1.4076689
-11.204676 -2.9965663 -1.4397984
-2.2896695 -3.0253065 -1.3909721
-11.182134 -2.913497 -1.4274698
-6.735498 -2.9068463 -1.4352835
-2.2986317 -2.9065711 -1.362716
-11.24033 -2.8181632 -1.4309922
-6.7637763 -2.8327909 -1.4094467
-2.3156574 -2.4809246 -1.3834764
-6.767715 -2.4242487 -1.4164915
-2.3214986 -2.4296043 -1.3710126
-11.280505 -2.3874562 -1.404574
-6.7679863 -2.3781228 -1.3946993
-11.238619 -2.304708 -1.3896036
-1.8828731 -0.6317457 -1.4108282
-8.2197237 -4.6820536 -1.3087007
-7.4839878 -4.6590147 -1.3454254
-7.4207082 -4.6422782 -1.333519
-5.875967 -4.6893005 -1.3521476
-5.783124 -4.6773849 -1.3456383
-5.7176437 -4.7172227 -1.3562899
-5.646831 -4.6834669 -1.3444549
-5.555747 -4.6819601 -1.3426795
-5.4652038 -4.6957331 -1.34623
-5.3969879 -4.6638026 -1.3361703
-5.3290005 -4.6784458 -1.3409044
-5.2385726 -4.6702819 -1.3391291
-5.1478882 -4.6697669 -1.3403126
-5.079649 -4.6710501 -1.3420879
-5.0122457 -4.659709 -1.3403126
-4.9172521 -4.6943178 -1.3539228
-3.5395632 -4.6512747 -1.3172829
-3.4899268 -4.6421113 -1.3205302
-3.3976054 -4.6656423 -1.3373075
-3.2974129 -4.7013488 -1.3584142
-2.4080813 -4.6644397 -1.3293179
-2.331665 -4.6771569 -1.3430628
-10.753574 -4.5734463 -1.3535308
-10.684615 -4.6095805 -1.3473005
-10.518571 -4.5649238 -1.316149
-9.5753756 -4.6003766 -1.3446925
-9.5062923 -4.6185603 -1.336767
-9.3891296 -4.5846419 -1.3129904
-9.2943001 -4.5716915 -1.2962589
-8.4905138 -4.5943723 -1.3293179
-8.4323997 -4.6075525 -1.3234273
-8.3521891 -4.5881643 -1.307719
-8.2879992 -4.5900035 -1.2988831
-8.2069025 -4.5651455 -1.2821929
-7.3301086 -4.6225071 -1.3178241
-7.2451086 -4.611753 -1.3053765
-7.1617556 -4.6009965 -1.2934701
-3.7081771 -4.625236 -1.2923877
-3.6678643 -4.5965886 -1.2891405
-3.5996237 -4.6350198 -1.306459
-2.5633674 -4.6291914 -1.2998648
-2.4925971 -4.6377649 -1.3116461
-15.955454 -4.4823861 -1.3530847
-13.517303 -4.5576119 -1.3352876
-10.378075 -4.5374727 -1.2912279
-15.53224 -4.4395795 -1.3042523
-2.2885661 -4.4580894 -1.3047737
-2.1911874 -4.4072342 -1.3096825
-6.7995191 -4.3779235 -1.3207848
-6.8015771 -4.2515736 -1.2840964
-11.261084 -3.4755845 -1.3184854
-11.283049 -3.4086084 -1.316149
-11.279758 -3.3291004 -1.3083612
-6.7287116 -3.2832103 -1.2875664
-2.3731663 -3.3099575 -1.3113168
-2.2839983 -3.2924528 -1.3274914
-11.268414 -3.2465279 -1.2990158
-11.220625 -3.1475263 -1.2818824
-6.7443027 -2.8986192 -1.3358017
-6.7675142 -2.8469589 -1.3198192
-2.2838223 -2.8644383 -1.3575785
-6.7751551 -2.4410858 -1.333868
-6.7671137 -2.3593659 -1.2953006
-1.8541751 -0.6377821 -1.3128484
-1.7740088 -0.56796408 -1.3405457
-1.7577736 -0.60724449 -1.3474699
-1.756933 -0.53072536 -1.3460851
-8.9955101 -4.5911803 -1.2548702
-8.0888758 -4.5771985 -1.2684481
-3.8033476 -4.5773363 -1.2701985
-2.7950549 -4.5611882 -1.2537216
-2.6526117 -4.5903211 -1.2792476
-1.7709527 -4.567668 -1.2557508
-1.6703186 -4.5939126 -1.2751242
-10.241698 -4.5101099 -1.2670856
-9.1949539 -4.551434 -1.277766
-9.078372 -4.5091052 -1.253109
-9.0346165 -4.5473967 -1.253109
-7.8954482 -4.559505 -1.238995
-7.7361822 -4.4859209 -1.2026695
-6.8332791 -4.5338521 -1.2431384
-6.7548933 -4.5174575 -1.2317731
-6.6790528 -4.5050449 -1.2220316
-6.6018219 -4.4840055 -1.2101252
-6.5574303 -4.4926553 -1.2090428
-6.4627523 -4.4861498 -1.2003835
-4.3541975 -4.5162182 -1.2074192
-4.2864685 -4.5086565 -1.2101252
-4.2117929 -4.5239239 -1.2198668
-4.1132488 -4.5349073 -1.2306907
-4.0418043 -4.5325799 -1.2361028
-3.9662831 -4.5398073 -1.2447619
-3.8915396 -4.5422044 -1.2523389
-3.047786 -4.5347481 -1.2154325
-2.9944162 -4.5266871 -1.2203413
-2.9251964 -4.5446844 -1.2331043
-2.8713796 -4.5351329 -1.2380133
-2.7407272 -4.5500593 -1.2586304
-15.22481 -4.4356513 -1.270117
-11.333011 -4.4474945 -1.2384577
-11.135206 -4.4002423 -1.2059557
-10.097607 -4.4725924 -1.2406068
-9.9899025 -4.4639478 -1.2234734
-7.7890749 -4.4780107 -1.2075783
-6.5060072 -4.4747939 -1.2003835
-14.84193 -4.3929148 -1.2260256
-13.007999 -4.3952456 -1.2584074
-12.801893 -4.3856425 -1.2312392
-11.44384 -4.3397212 -1.2438747
-11.37886 -4.3873477 -1.2391348
-7.0039692 -4.3990989 -1.2241964
-2.3097999 -4.3424878 -1.2782658
-2.3562295 -3.5584836 -1.2431383
-6.796926 -3.5112755 -1.2754571
-2.3114834 -3.472249 -1.2344792
-2.310854 -3.3761711 -1.2155372
-2.2977588 -3.30527 -1.2043524
-6.7389727 -3.2253652 -1.2682604
-6.7321396 -3.1341283 -1.2341034
-15.738321 -3.0776439 -1.2762803
-11.192741 -3.0598192 -1.2694218
-11.185089 -2.9827597 -1.261634
-6.7558084 -2.910676 -1.2510225
-2.3157902 -2.8978555 -1.2391235
-15.712103 -2.8409503 -1.2663242
-11.251479 -2.8180816 -1.2605956
-6.7596459 -2.833498 -1.2224821
-2.2714522 -2.8798332 -1.2462244
-2.3164754 -2.4377031 -1.2625352
-6.7690086 -2.3660986 -1.2125518
-2.3105769 -2.3948443 -1.2561133
-15.73073 -2.2796092 -1.2544717
-11.264856 -2.3089399 -1.2273674
-15.742546 -2.1699474 -1.2535235
-11.229036 -2.2293561 -1.2156856
-6.4175434 -4.489572 -1.1982187
-4.5657601 -4.4910965 -1.1873947
-4.4503069 -4.4996781 -1.1965952
-3.1290271 -4.4911513 -1.1957971
-9.8481712 -4.4217167 -1.1969948
-8.6735277 -4.4668627 -1.1870631
-8.2411785 -4.4242477 -1.1210173
-7.5583138 -4.4679642 -1.1771435
-7.4692082 -4.400558 -1.1516174
-6.3433585 -4.4655752 -1.1868535
-6.2773986 -4.4742942 -1.1852299
-6.2080345 -4.4269061 -1.1682724
-6.1113319 -4.4220791 -1.1619582
-6.0271025 -4.4436893 -1.1641231
-5.9609509 -4.4397311 -1.1603347
-5.8955479 -4.438416 -1.1576288
-5.8080034 -4.4306641 -1.1527579
-5.7219496 -4.4306283 -1.1505932
-5.6358762 -4.428793 -1.1484282
-5.5502019 -4.4270658 -1.1468047
-5.4647436 -4.4235411 -1.1451811
-5.4007115 -4.4241114 -1.1451811
-5.3365188 -4.4331889 -1.147887
-5.251462 -4.4194202 -1.1446398
-5.1661911 -4.4173408 -1.1451811
-5.102047 -4.4170628 -1.1462635
-4.9728374 -4.4210157 -1.150593
-4.9048152 -4.4481568 -1.1603347
-4.8399549 -4.4437418 -1.1614171
-4.7724619 -4.4553089 -1.1673703
-4.682034 -4.4678278 -1.174947
-4.6156592 -4.4655614 -1.1776531
-4.5240421 -4.4746003 -1.1852299
-3.5479295 -4.4064898 -1.1290367
-3.4874322 -4.425487 -1.1398361
-3.4091103 -4.4244518 -1.1481811
-3.3146851 -4.4532785 -1.1653621
-3.2574873 -4.4587221 -1.1732163
-3.1926334 -4.4770927 -1.1849976
-2.4615719 -4.4077878 -1.130704
-2.3797753 -4.430109 -1.1456745
-2.3089659 -4.4355979 -1.1562418
-2.2138455 -4.4709158 -1.1756152
-12.541561 -4.3412814 -1.1948222
-12.355118 -4.3332343 -1.1705443
-12.265232 -4.3778071 -1.1624516
-10.955041 -4.3608446 -1.1768395
-10.684141 -4.336226 -1.1368892
-9.6935101 -4.3635802 -1.166622
-9.5944862 -4.3541384 -1.1510463
-9.5101852 -4.356761 -1.1393645
-8.5343847 -4.3777437 -1.1518388
-8.451848 -4.357574 -1.1368684
-8.3957272 -4.3705392 -1.1315846
-7.595418 -4.3335638 -1.1516174
-7.4094 -4.3872895 -1.1417997
-7.3223801 -4.3692808 -1.1280549
-7.2476187 -4.3744102 -1.1211824
-5.06076 -4.3983703 -1.1419338
-5.0194707 -4.3830948 -1.1386867
-2.2240815 -4.3699684 -1.1562418
-14.406538 -4.318604 -1.1748227
-10.754142 -4.3017411 -1.1429833
-6.8042154 -4.2482238 -1.1646643
-2.1345716 -4.2264485 -1.1439133
-11.253407 -4.1266003 -1.1964761
-6.7925873 -4.0925541 -1.1224506
-11.23594 -4.0293555 -1.1849649
-6.7367973 -3.2914917 -1.1923655
-11.259689 -3.2371366 -1.1219926
-6.7714491 -3.2464099 -1.1826715
-2.2796741 -3.2202911 -1.1917243
-11.286047 -3.1739125 -1.1213154
-2.2669559 -3.1719964 -1.1852299
-2.2722328 -3.1084681 -1.1722411
-6.7088032 -3.0133581 -1.1865808
-2.3280408 -3.0025795 -1.1408515
-6.7709122 -2.9315703 -1.1687598
-2.3298399 -2.9454055 -1.1300274
-2.3057961 -2.9106574 -1.128945
-6.7663631 -2.8383114 -1.135098
-2.3255093 -2.3435476 -1.1349756
-6.76298 -2.2766039 -1.1742419
-1.9335238 -0.61055726 -1.1786231
-1.9138021 -0.56322515 -1.1841886
-1.9117606 -0.52670646 -1.1841886
-9.3901443 -4.3220787 -1.1175585
-8.3051929 -4.3354754 -1.1130918
-8.2338505 -4.324379 -1.1016439
-8.1170225 -4.3344994 -1.0884348
-7.8777008 -4.3321419 -1.058494
-7.1631279 -4.3549399 -1.1079286
-3.9489202 -4.3279281 -1.0720938
-3.8001263 -4.3415589 -1.088784
-3.7152324 -4.3696814 -1.1035106
-3.637434 -4.3763609 -1.1128374
-2.8051643 -4.3594694 -1.0778674
-2.7676294 -4.3255711 -1.0761062
-2.6889448 -4.3527069 -1.0910766
-2.6160719 -4.3690028 -1.1034051
-2.5335443 -4.3969436 -1.1192561
-1.7653906 -4.320652 -1.0684949
-1.6623862 -4.3482947 -1.0864071
-13.777811 -4.253077 -1.1032333
-10.532833 -4.307096 -1.1131899
-10.392017 -4.2825627 -1.091522
-10.255358 -4.2579966 -1.0705312
-9.3043079 -4.3188939 -1.1050979
-9.1890392 -4.2832689 -1.0840707
-9.1099501 -4.2827759 -1.0731677
-9.0126562 -4.2608881 -1.0568131
-8.9241304 -4.2461286 -1.0427951
-6.8506927 -4.3012309 -1.0657125
-6.7493677 -4.2775669 -1.0514767
-6.6850653 -4.2909775 -1.0495132
-6.6344185 -4.2746263 -1.041659
-4.2573957 -4.2982965 -1.0406773
-4.1932445 -4.2872171 -1.0426408
-4.1160245 -4.3157949 -1.0554038
-4.0488243 -4.3097372 -1.0593309
-3.8894434 -4.2974849 -1.0701303
-2.9118202 -4.3147907 -1.0564392
-1.6180134 -4.3117747 -1.0871859
-13.93037 -4.2159586 -1.1179305
-13.471376 -4.2136893 -1.0681499
-11.455432 -4.1633086 -1.0451082
-10.116728 -4.2285018 -1.0488633
-2.3046966 -4.1846824 -1.1122112
-15.896637 -4.0794282 -1.0408303
-6.815134 -4.0346289 -1.1094618
-2.3317354 -4.0707788 -1.0884348
-6.7510066 -3.3145123 -1.1045578
-2.3161035 -3.313556 -1.0828934
-6.8012943 -3.2616746 -1.0955671
