# .PCD v0.7 - Point Cloud Data file format
VERSION 0.7
FIELDS x y z
SIZE 4 4 4
TYPE F F F
COUNT 1 1 1
WIDTH 1490
HEIGHT 1
VIEWPOINT 0 0 0 1 0 0 0
POINTS 1490
DATA ascii
-11.700623 -2.0191512 0.75876415
-11.633839 -2.0061436 0.77141011
-11.535217 -2.0690916 0.72941887
-11.485904 -2.0545259 0.737279
-11.40675 -2.0254681 0.74933118
-11.312029 -2.0049109 0.76662344
-11.234138 -2.0053647 0.78391564
-11.170385 -2.0664086 0.72561377
-11.094692 -2.042299 0.73746252
-11.029383 -2.0283232 0.74883723
-10.664204 -2.0320387 0.73278755
-10.512717 -2.0130253 0.75945747
-10.194832 -2.0462704 0.721026
-10.124279 -2.0136242 0.73033679
-16.133089 -1.9862217 0.73556668
-15.472736 -1.9208547 0.73347199
-15.224863 -1.9434905 0.74918878
-15.010805 -1.9845084 0.77480412
-14.778948 -1.969859 0.78008103
-14.675809 -1.9846511 0.76193964
-14.519564 -1.9751257 0.78585631
-14.434342 -1.9802024 0.77072877
-14.358285 -1.9908837 0.760773
-14.280026 -1.9530863 0.78930855
-14.209608 -1.9724113 0.78559321
-14.121278 -1.9672245 0.75494456
-14.034783 -1.96942 0.77383769
-13.953905 -1.9880793 0.75958574
-13.878304 -1.9723021 0.78770584
-13.773124 -1.9643579 0.79084826
-13.723244 -1.9814625 0.79697883
-13.645998 -1.9782028 0.79347563
-13.556406 -1.9782517 0.79347563
-13.475505 -1.9748087 0.79382592
-13.407062 -1.972333 0.79581118
-13.313603 -1.960758 0.79697883
-13.136355 -1.9983642 0.77609843
-13.073187 -1.9896781 0.78063941
-12.993322 -1.966832 0.77773708
-12.914941 -1.9715276 0.77125263
-12.84224 -1.9899424 0.76025581
-12.768406 -1.988843 0.773444
-12.685056 -1.9868512 0.78921801
-12.622128 -1.9710567 0.79671705
-12.544243 -1.9976722 0.76193964
-12.420353 -1.9946799 0.78806329
-12.376495 -1.9824566 0.79435229
-12.191604 -1.9990207 0.77818161
-12.133766 -1.9783003 0.78628767
-11.879111 -1.9807805 0.78045702
-11.806754 -1.9623613 0.79390246
-11.557228 -1.9811025 0.78443938
-11.204189 -1.9892182 0.78810775
-11.156187 -1.9662013 0.79544377
-11.044708 -1.9804094 0.73935831
-10.622701 -1.9942359 0.73659754
-10.440098 -1.9884648 0.77088743
-10.350058 -1.9710696 0.7865507
-10.301613 -1.9523226 0.79417068
-10.021815 -1.9942679 0.74635124
-9.9437971 -1.9839673 0.75901389
-9.8836308 -1.9643811 0.76795226
-9.8307209 -1.9406558 0.77540088
-9.741539 -1.9308972 0.7902981
-9.399724 -1.9665416 0.73353595
-9.2461605 -1.973505 0.75734371
-9.1774111 -1.9465913 0.76635206
-9.0901184 -1.9249218 0.77857763
-8.5806866 -1.9847491 0.72226334
-8.4466352 -1.968919 0.73907274
-8.3616886 -1.9355308 0.74883306
-7.3007393 -1.9697195 0.72093934
-16.436516 -1.8812673 0.78627908
-16.288464 -1.8562288 0.75168091
-16.026501 -1.8792312 0.77867562
-15.675986 -1.8466973 0.76796126
-15.212315 -1.8651127 0.76116002
-14.957468 -1.8735878 0.73224729
-14.722551 -1.8423835 0.72710812
-14.505755 -1.8574299 0.74008578
-14.296227 -1.8784378 0.76123697
-14.023226 -1.8704884 0.75808269
-12.991556 -1.8727609 0.79873049
-9.0028019 -1.9015958 0.79080325
-8.3301525 -1.8850229 0.75100201
-8.0892029 -1.8927906 0.78299415
-7.2300754 -1.9169618 0.72710878
-7.1520915 -1.864718 0.73415953
-6.7874184 -1.8752896 0.77381998
-6.5929489 -1.8419516 0.79409093
-5.1388903 -1.8723943 0.73097563
-16.18829 -1.8359288 0.72798353
-15.887078 -1.8250505 0.73885101
-15.641449 -1.7895501 0.74956697
-15.567751 -1.8160942 0.73634601
-15.503479 -1.8153471 0.72082591
-15.410098 -1.8336598 0.77045119
-15.331492 -1.8151941 0.74668723
-15.253401 -1.8096813 0.72605014
-15.14028 -1.8116701 0.76196951
-15.06828 -1.8029099 0.74125403
-14.999366 -1.8091879 0.72549224
-14.923302 -1.8017417 0.76484227
-14.851308 -1.7969565 0.7448867
-14.752588 -1.8101887 0.73594987
-14.673076 -1.7895113 0.75560117
-14.609288 -1.796765 0.74241304
-14.522813 -1.7957079 0.74948382
-14.433135 -1.7819204 0.75091654
-14.364025 -1.7993978 0.74266016
-14.28553 -1.7962146 0.75221032
-14.188664 -1.7836621 0.75494039
-14.120665 -1.7868062 0.74443084
-14.040513 -1.7989117 0.75875437
-13.959465 -1.7767813 0.76824969
-13.880774 -1.7755413 0.75862348
-13.805348 -1.7847633 0.75677222
-13.720016 -1.785753 0.75232941
-13.638517 -1.781847 0.74788654
-13.563431 -1.7868645 0.75047815
-13.480128 -1.7879419 0.75344008
-13.397169 -1.7815406 0.75492108
-13.320111 -1.7807748 0.76121515
-13.242945 -1.7759235 0.76750928
-13.157651 -1.7731495 0.77812284
-13.078092 -1.7673115 0.78861296
-12.993154 -1.7850211 0.77421218
-12.921817 -1.7793814 0.77070487
-12.850227 -1.7731699 0.78354996
-12.779249 -1.7613245 0.79522729
-12.669301 -1.7936797 0.7785753
-12.608865 -1.7700087 0.7849052
-12.46666 -1.7850876 0.76956511
-12.375068 -1.7740715 0.79051089
-12.199122 -1.7881478 0.78177428
-12.111453 -1.7650496 0.7996738
-11.98465 -1.7741754 0.77277756
-11.718076 -1.7919652 0.78045702
-11.404253 -1.7874042 0.78750515
-11.173105 -1.7783508 0.76452744
-4.930851 -1.8162763 0.74758101
-4.4435863 -1.8002334 0.78824723
-15.651982 -1.7336239 0.74266911
-14.217243 -1.7481539 0.74443084
-13.726751 -1.7591045 0.73863047
-13.175611 -1.7588124 0.76824975
-13.102675 -1.7575251 0.77935696
-12.815599 -1.7489299 0.78121448
-12.760835 -1.7588316 0.79873049
-12.577978 -1.7510285 0.78600609
-12.556829 -1.7490116 0.79095989
-12.44622 -1.7496464 0.76335889
-12.351631 -1.7560723 0.79128671
-12.209026 -1.758073 0.77064753
-12.123597 -1.7533168 0.79314291
-11.942167 -1.7508862 0.77885711
-11.882504 -1.7407763 0.79304272
-11.710919 -1.7508601 0.77420342
-11.640139 -1.7406335 0.79108828
-11.402975 -1.7393315 0.78003252
-11.155996 -1.7372593 0.76295537
-11.052152 -1.692192 0.78181964
-10.730972 -1.7456014 0.77822196
-10.705978 -1.7204704 0.78106564
-10.638845 -1.7144849 0.79528409
-10.240062 -1.7286967 0.7865507
-10.185856 -1.7093434 0.79586399
-9.6344118 -1.7371757 0.79625702
-6.651752 -1.7535363 0.78571814
-15.639278 -1.6429297 0.74787039
-11.209142 -1.6741836 0.74199504
-11.178425 -1.6582491 0.74723512
-6.6882 -1.670997 0.77998942
-6.6708331 -1.5992513 0.78043008
-6.7247667 -1.5153278 0.77293867
-13.954216 -1.9582851 0.8022337
-13.854744 -1.9917493 0.8092401
-13.818084 -1.9800292 0.80106592
-13.577628 -1.9932625 0.80048209
-13.370352 -1.9881848 0.8057369
-13.324687 -1.9809881 0.80573696
-13.241605 -1.9693998 0.80792636
-13.161554 -1.9657247 0.81554592
-13.083865 -1.9498637 0.81887388
-13.029606 -1.9448028 0.82500452
-12.839957 -1.9571892 0.80582136
-12.765924 -1.9380251 0.81308699
-12.70989 -1.9226242 0.81903154
-12.576542 -1.9688993 0.80602634
-12.514822 -1.9526125 0.81455982
-12.441581 -1.932671 0.82542062
-12.324947 -1.979062 0.80547905
-12.285564 -1.9586042 0.80886549
-12.207944 -1.9483795 0.82531363
-12.156431 -1.9392456 0.83595663
-12.046299 -1.970078 0.80553955
-11.956155 -1.9428878 0.82141382
-11.709627 -1.9450461 0.81422675
-11.647169 -1.9290899 0.82673413
-11.461304 -1.968071 0.80474979
-11.399912 -1.9430852 0.81509662
-11.329226 -1.9228228 0.82889223
-11.078791 -1.9424558 0.80959207
-11.019518 -1.9238975 0.82059622
-10.68907 -1.93967 0.80902857
-10.213084 -1.9299514 0.80941063
-16.388821 -1.8717773 0.86251682
-16.284861 -1.8887237 0.84015924
-16.190323 -1.9076523 0.82059622
-16.113615 -1.8787234 0.84050262
-16.067215 -1.8672476 0.86912978
-15.772017 -1.8450189 0.86800832
-15.726852 -1.8804197 0.86258841
-15.634138 -1.8961972 0.84111756
-15.552252 -1.8994291 0.82048047
-15.488353 -1.8626698 0.86824894
-15.411671 -1.8809026 0.85113609
-15.310887 -1.873489 0.83926183
-15.235074 -1.8666239 0.86836928
-15.163693 -1.8944864 0.85579127
-15.069342 -1.8794274 0.82579744
-15.007541 -1.8725004 0.85958022
-14.923671 -1.894134 0.85593432
-14.841667 -1.8778093 0.8285237
-14.764831 -1.8752147 0.85441613
-14.682625 -1.8793689 0.84930485
-14.595775 -1.8631856 0.84531182
-14.521557 -1.8643938 0.86353976
-14.437823 -1.8662174 0.84383422
-14.353626 -1.8624697 0.85252649
-14.273561 -1.859696 0.86312389
-14.198619 -1.8585714 0.84738863
-14.128139 -1.8630904 0.83674419
-14.051344 -1.8475184 0.8597126
-13.958702 -1.8494837 0.86170137
-13.8693 -1.8536129 0.85370106
-13.797041 -1.8566154 0.849213
-13.725535 -1.8601098 0.8468715
-13.311988 -1.8519183 0.85467666
-13.246091 -1.8530185 0.86296976
-13.159292 -1.8471087 0.87223852
-13.009184 -1.8989221 0.8074885
-12.838037 -1.8480637 0.87747079
-12.689055 -1.8837961 0.80857348
-12.440047 -1.8671558 0.80369902
-12.157613 -1.9049125 0.82579744
-11.906735 -1.9070641 0.82546693
-11.59866 -1.9169962 0.83674002
-11.29846 -1.8913293 0.8311916
-10.655845 -1.8983395 0.81139833
-10.608668 -1.883378 0.81992936
-10.533673 -1.8814876 0.8360436
-10.106609 -1.9134015 0.82888389
-10.06175 -1.8892093 0.83565718
-9.6667633 -1.9136351 0.80221587
-9.5772638 -1.900632 0.8171131
-9.517067 -1.8749219 0.82605147
-8.8929653 -1.8839511 0.80688953
-8.7943029 -1.8606213 0.82104552
-8.6767311 -1.8411118 0.83841872
-7.9432201 -1.869963 0.80143028
-7.7971253 -1.844244 0.81986648
-16.433784 -1.8201506 0.86670887
-16.387566 -1.833423 0.85727674
-15.708751 -1.7691596 0.83674002
-15.538516 -1.8374759 0.87680531
-15.302683 -1.8171761 0.8751421
-14.348982 -1.8336899 0.83892667
-14.108655 -1.8195289 0.86911649
-14.070066 -1.8273598 0.86638463
-13.904603 -1.8273641 0.84296882
-13.68433 -1.835096 0.83126092
-13.637219 -1.8152058 0.81916273
-13.560358 -1.8109516 0.81682128
-13.483495 -1.8138418 0.82072371
-13.404106 -1.8278906 0.8332122
-13.355499 -1.8349528 0.84101748
-13.210615 -1.8289897 0.85467672
-12.990972 -1.7939488 0.81823224
-12.916198 -1.8255593 0.84908563
-12.840668 -1.8231353 0.86543798
-12.689886 -1.7742007 0.82325292
-12.612174 -1.8264194 0.8652913
-12.512734 -1.7612721 0.80747265
-12.43199 -1.8020258 0.84462631
-12.363226 -1.8233193 0.87187231
-12.224696 -1.7741687 0.83317834
-12.155495 -1.8148165 0.86576074
-11.966495 -1.77751 0.84466451
-11.694186 -1.7809256 0.85518914
-11.44914 -1.760703 0.84674585
-11.364114 -1.7832102 0.87426198
-10.695463 -1.7653825 0.87718904
-10.171861 -1.7988082 0.80602396
-9.534584 -1.8200552 0.81934768
-7.685596 -1.8070961 0.83342248
-15.631446 -1.686442 0.80046874
-14.085908 -1.7165419 0.84752607
-12.996864 -1.6982235 0.85339022
-12.732171 -1.7561437 0.80486107
-12.322116 -1.7593098 0.80059594
-12.287503 -1.7524518 0.80835366
-12.04998 -1.7479908 0.81273562
-11.843081 -1.7276005 0.80114877
-11.772001 -1.7526735 0.82681793
-11.565831 -1.7301769 0.80922383
-11.299919 -1.7216674 0.80360019
-11.226086 -1.7322062 0.82429373
-11.169696 -1.714553 0.83636492
-10.914612 -1.7289174 0.81954819
-10.838179 -1.731812 0.83841246
-10.56798 -1.7088299 0.81045043
-10.468412 -1.7142535 0.83319992
-10.332621 -1.7328839 0.86542833
-10.08428 -1.7073088 0.81618392
-10.02632 -1.6868553 0.82634389
-9.8287315 -1.7159245 0.86867708
-9.5087414 -1.7093951 0.8171131
-9.3266487 -1.6957428 0.84914213
-8.7978325 -1.7497041 0.81525445
-8.6998043 -1.72277 0.82941037
-8.559886 -1.7052102 0.85064429
-7.6860924 -1.7414514 0.83125353
-7.5635691 -1.7037276 0.8464362
-4.0543299 -1.7595822 0.82044131
-3.8663483 -1.6833451 0.8353523
-15.648526 -1.6671501 0.80171949
-11.17713 -1.6443949 0.82429373
-8.4542179 -1.6759999 0.8660872
-7.4993377 -1.6511883 0.85348535
-3.5009956 -1.6258006 0.86551309
-14.057724 -1.5486597 0.87315977
-11.205638 -1.5495303 0.80360019
-11.197887 -1.5850484 0.810498
-16.141413 -1.840441 0.88407516
-15.125195 -1.8540459 0.90144622
-15.075534 -1.8514864 0.88593078
-14.908384 -1.8555815 0.90407211
-14.838583 -1.8689675 0.88838494
-14.659779 -1.8512188 0.89506859
-14.614023 -1.8522197 0.88280737
-14.413172 -1.8451858 0.888578
-14.377617 -1.8539053 0.88395
-14.015136 -1.8726987 0.88199514
-13.867835 -1.8474222 0.90842873
-13.784396 -1.8427238 0.89817566
-13.709402 -1.8432049 0.89407432
-13.62975 -1.8468543 0.89407444
-13.556559 -1.8472792 0.89448452
-13.485641 -1.849799 0.8981756
-13.397858 -1.8522265 0.90514773
-13.323833 -1.8460207 0.90842885
-13.237456 -1.8417414 0.91663134
-13.133578 -1.8614341 0.88394648
-13.081468 -1.8429832 0.88329607
-13.023722 -1.8473748 0.89663005
-12.811259 -1.8421919 0.88117319
-12.552704 -1.8468056 0.88981378
-16.334993 -1.7670796 0.92431265
-16.282045 -1.7934148 0.91396582
-16.204521 -1.8228979 0.89787084
-16.036324 -1.7758155 0.92929417
-15.90557 -1.7650703 0.89052147
-15.786618 -1.7699006 0.93557423
-15.719003 -1.7900369 0.91936207
-15.648499 -1.8218174 0.90517646
-15.55014 -1.7885534 0.9246518
-15.465588 -1.7944667 0.9186815
-15.396343 -1.8175726 0.90320081
-15.296686 -1.7636255 0.92937398
-15.24452 -1.7945979 0.92122835
-15.159024 -1.8242073 0.90299773
-15.086526 -1.7959617 0.9399873
-14.990907 -1.8211834 0.91769516
-14.91573 -1.7966442 0.93559808
-14.847054 -1.8038942 0.93302006
-14.762027 -1.8074583 0.92068195
-14.68865 -1.8006271 0.91934949
-14.610918 -1.8047339 0.91224992
-14.52311 -1.7990865 0.92473954
-14.441245 -1.8036835 0.91513449
-14.348126 -1.7862034 0.92530793
-14.282661 -1.7971069 0.91692001
-14.203451 -1.8005174 0.91108608
-14.13047 -1.7863114 0.89928198
-14.042011 -1.7914267 0.92284334
-13.967512 -1.800446 0.92008901
-13.885338 -1.8000143 0.9220683
-13.797793 -1.8090682 0.91620493
-13.722999 -1.7993938 0.91748875
-13.639625 -1.8074964 0.91470832
-13.55502 -1.80347 0.92729294
-13.473324 -1.8103451 0.92462373
-13.402104 -1.800849 0.93374431
-13.321877 -1.8041525 0.92658269
-13.239473 -1.8061577 0.93190223
-13.160568 -1.8017398 0.93262565
-13.087859 -1.8072067 0.92234987
-12.999989 -1.8041916 0.919025
-12.908923 -1.7931927 0.91452599
-12.836747 -1.8066541 0.91907012
-12.757943 -1.8080057 0.90962803
-12.683232 -1.7896132 0.92999423
-12.604437 -1.8004611 0.91856748
-12.520482 -1.8078564 0.9149633
-12.441979 -1.8055124 0.92743045
-12.354106 -1.7992778 0.93097645
-12.284116 -1.8040136 0.92193741
-12.201546 -1.8177872 0.91893357
-12.109071 -1.8086872 0.91811705
-12.041887 -1.7986534 0.92258227
-11.959814 -1.8010885 0.9216162
-11.887274 -1.7941588 0.92497492
-11.813189 -1.7969154 0.90949023
-11.690733 -1.8018287 0.93392026
-11.641129 -1.7757442 0.94335377
-11.56762 -1.8029854 0.91530937
-11.460741 -1.8037677 0.92814362
-11.396054 -1.7812362 0.94300479
-11.259495 -1.7988317 0.90615565
-11.164254 -1.7881676 0.93117028
-11.107279 -1.7695177 0.94430298
-10.593609 -1.7762537 0.90338945
-10.508741 -1.7770531 0.92434973
-10.437622 -1.7699025 0.941118
-10.135005 -1.7739252 0.91377097
-16.43145 -1.7242129 0.94443142
-16.390722 -1.7590839 0.93810833
-16.127758 -1.7418655 0.94993126
-15.866358 -1.7388265 0.95381284
-15.829365 -1.7484782 0.94435579
-15.616741 -1.7490025 0.95569003
-15.386736 -1.7459512 0.95419866
-15.320123 -1.7379018 0.93014979
-15.142712 -1.7590921 0.94700515
-14.772337 -1.7501115 0.95337015
-14.574257 -1.7543361 0.95516956
-14.405318 -1.7370131 0.95764393
-14.36214 -1.7455428 0.94944137
-14.249655 -1.7598574 0.92688447
-14.182335 -1.7332916 0.95696968
-14.122383 -1.7178848 0.93379223
-14.048841 -1.7536918 0.93976569
-13.945871 -1.7549587 0.92256176
-13.875373 -1.7279853 0.95642501
-13.816708 -1.7335303 0.95304942
-13.715065 -1.7499002 0.95597494
-13.64171 -1.7553246 0.95687503
-13.568083 -1.7549198 0.95642489
-13.45845 -1.7432849 0.95304942
-13.435641 -1.7491225 0.95867538
-13.09576 -1.7528833 0.95051819
-12.978737 -1.7088369 0.95266867
-12.932858 -1.7363682 0.93899679
-12.844241 -1.7498845 0.94995403
-12.617043 -1.7460779 0.95419383
-12.393533 -1.7349498 0.95892376
-12.026382 -1.746543 0.9536103
-11.801697 -1.7349129 0.95523304
-11.573785 -1.7451847 0.95786697
-11.354689 -1.7584814 0.95111084
-11.075945 -1.7525644 0.95055664
-10.8179 -1.707522 0.92891121
-10.713861 -1.7210566 0.95880193
-10.405237 -1.7444302 0.94635808
-10.35527 -1.7259697 0.95683825
-10.069748 -1.7577138 0.92704153
-9.9899588 -1.7458953 0.94410366
-9.5527229 -1.7442498 0.9270969
-9.5015793 -1.6903626 0.9338702
-9.0758667 -1.7228127 0.89606845
-8.91084 -1.7194296 0.92586291
-8.798378 -1.6978668 0.94522929
-8.1071329 -1.7042614 0.92206758
-14.093301 -1.6382325 0.90853715
-12.991796 -1.6442593 0.91180933
-11.17141 -1.6337023 0.90427953
-7.9625969 -1.6774327 0.94394493
-7.2452168 -1.635967 0.88710421
-6.8506474 -1.6423917 0.94024366
-5.5467739 -1.6283872 0.90381825
-12.99477 -1.5964228 0.94292253
-11.16558 -1.5724057 0.89677519
-5.2388687 -1.587647 0.93686861
-2.9774532 -1.5790709 0.90922928
-14.067549 -1.4843575 0.95043963
-2.6480618 -1.5010957 0.93634009
-14.970671 -1.7733563 0.96250528
-14.766603 -1.7732806 0.96077496
-14.402602 -1.7662858 0.97199833
-13.485979 -1.7673726 0.96767706
-13.418898 -1.7637252 0.96992749
-13.095207 -1.7775521 0.96557164
-13.032137 -1.7647446 0.97202313
-12.440734 -1.7835319 0.96262616
-12.387394 -1.771789 0.97558457
-12.211607 -1.7737072 0.9686358
-16.296082 -1.6906378 0.99120545
-16.216909 -1.7204024 0.97244447
-16.046368 -1.6948687 1.0017737
-15.955718 -1.7100406 0.9761045
-15.896931 -1.7246841 0.96056789
-15.775932 -1.6964729 0.9963268
-15.719107 -1.7235007 0.98326498
-15.66478 -1.7348602 0.96802616
-15.560082 -1.6919721 0.99971056
-15.479302 -1.7252661 0.98005772
-15.418829 -1.7406003 0.96350789
-15.2877 -1.6929379 0.97755378
-15.237584 -1.7223709 0.98266709
-15.167007 -1.7177249 0.9951756
-15.074127 -1.7262838 0.99619663
-15.002978 -1.7234424 0.99728078
-14.915216 -1.7193652 0.99131984
-14.831445 -1.7269716 0.98676682
-14.764136 -1.7008973 0.99663496
-14.674822 -1.712271 0.98271877
-14.605982 -1.7164942 0.98496848
-14.524755 -1.7187002 0.9863528
-14.443682 -1.7149627 0.98556912
-14.363256 -1.7028583 0.99051732
-14.275903 -1.7116941 0.98762035
-14.212285 -1.7085189 0.98166043
-14.084747 -1.6891217 0.96917731
-14.040317 -1.7130409 0.97487843
-13.954575 -1.7106245 0.98235977
-13.875075 -1.713395 0.98860568
-13.795079 -1.7225478 0.98115158
-13.715363 -1.7079878 0.98998433
-13.636942 -1.7067267 0.98583162
-13.553595 -1.7190682 0.98583311
-13.484576 -1.7211725 0.98873252
-13.394173 -1.7223896 0.98203182
-13.318851 -1.7233785 0.98562652
-13.241013 -1.714859 0.99523467
-13.163541 -1.7167548 0.99487162
-13.078218 -1.7216545 0.98958743
-13.005874 -1.7207881 0.98426914
-12.905963 -1.7135787 0.97560722
-12.844126 -1.7095776 0.99191523
-12.763981 -1.718803 0.98994952
-12.678781 -1.7257921 0.98869628
-12.594871 -1.7110857 0.99936581
-12.526581 -1.715515 0.98157519
-12.427746 -1.7054188 1.0015134
-12.34638 -1.7164917 0.99500716
-12.277518 -1.7165494 0.99286246
-12.193335 -1.7166529 0.99605066
-12.12067 -1.7303772 0.98556799
-12.049191 -1.7085047 1.0042518
-11.965295 -1.7251872 0.98598444
-11.881444 -1.7066656 0.99241525
-11.835947 -1.6836594 1.0023229
-11.724744 -1.7173531 0.97669601
-11.644608 -1.698795 0.99971056
-11.522182 -1.7488698 0.97528273
-11.473911 -1.7332796 0.98761892
-11.402946 -1.6987963 1.0038252
-11.299044 -1.743474 0.96529645
-11.223064 -1.7222335 0.98488605
-11.153594 -1.6947998 1.0017737
-11.077888 -1.6853894 1.0240654
-11.024653 -1.7459724 0.9643147
-10.661408 -1.7084428 0.971448
-10.636862 -1.682309 0.97489691
-10.264323 -1.7030457 0.97727454
-9.8901062 -1.7178191 0.96448338
-9.8085566 -1.6807168 0.98012364
-9.3721924 -1.683834 0.9601168
-16.416916 -1.6479521 1.0210146
-16.366531 -1.6719384 1.0093411
-16.112398 -1.6633389 1.0173104
-15.920053 -1.6386738 1.0333353
-15.867246 -1.6562452 1.0188222
-15.824029 -1.6784189 1.0086629
-15.692687 -1.6273808 1.0317758
-15.64787 -1.6595148 1.0229837
-15.48157 -1.6484585 1.0361739
-15.401355 -1.663847 1.0105792
-15.311625 -1.6421787 1.0079011
-15.253431 -1.6548102 1.0260009
-15.074669 -1.6619362 1.0305036
-14.91925 -1.657788 1.0381005
-14.865231 -1.6716771 1.0224899
-14.742503 -1.6395315 1.0287324
-14.679971 -1.6627517 1.0150616
-14.573701 -1.6454483 1.0333122
-14.522854 -1.6614742 1.0225596
-14.449145 -1.6577927 1.0160171
-14.360711 -1.6568364 1.0291883
-14.283593 -1.6741437 1.0141855
-14.18488 -1.6512537 1.0141783
-14.132568 -1.6415049 0.99304414
-14.044825 -1.6455948 1.0209088
-13.970599 -1.637894 1.0160081
-13.882168 -1.6446551 1.0184107
-13.79658 -1.6499193 1.0185382
-13.719412 -1.6538402 1.0237724
-13.638898 -1.6631094 1.0178033
-13.556599 -1.6571692 1.0133125
-13.481367 -1.6536214 1.0141289
-13.404849 -1.6555033 1.0227023
-13.322124 -1.6458192 1.026785
-13.240342 -1.6380304 1.0361751
-13.16596 -1.66394 1.0212429
-13.079456 -1.6683012 1.0295523
-12.989843 -1.6431469 1.0120035
-12.923961 -1.6493019 1.0097576
-12.842123 -1.6572956 1.0284382
-12.758 -1.6589254 1.0251611
-12.676603 -1.665215 1.0247102
-12.628675 -1.6451235 1.0322369
-12.508936 -1.6613743 1.0186502
-12.445936 -1.6325996 1.0302362
-12.362846 -1.6790088 1.0146847
-12.307721 -1.6673441 1.031271
-12.201723 -1.6787726 1.007055
-12.135789 -1.670135 1.0292695
-11.956276 -1.6723889 1.0276064
-11.906988 -1.6406395 1.0369484
-11.812289 -1.6579041 1.0039742
-11.73303 -1.6566989 1.0328715
-11.575462 -1.6696992 1.0170362
-11.515993 -1.6623688 1.0364304
-11.312464 -1.6732829 1.0289813
-11.27569 -1.6463525 1.036238
-11.047315 -1.6675394 1.0308204
-11.01684 -1.6491941 1.0375755
-10.831627 -1.6680751 1.0093411
-10.757712 -1.6488253 1.0287274
-10.71503 -1.6140124 1.0368571
-10.531851 -1.6718582 1.0024884
-10.430006 -1.6572247 1.0289301
-10.388035 -1.635345 1.0381273
-10.173271 -1.6777653 0.99771082
-10.105346 -1.6621622 1.0134311
-10.059145 -1.6373663 1.0228633
-9.7396288 -1.6596683 0.99434209
-9.6633463 -1.6397396 1.0104563
-9.5611267 -1.6265523 1.0332057
-9.2724285 -1.6656419 0.97959006
-9.1500797 -1.6520911 1.0041434
-9.0952921 -1.6170647 1.0134566
-8.6934547 -1.6720507 0.96310598
-8.5847492 -1.6451644 0.98172754
-8.4646339 -1.6189725 1.0025836
-7.8141832 -1.6485856 0.96646577
-7.6812134 -1.6134765 0.98641282
-6.6463866 -1.6061649 0.96681345
-16.389299 -1.5767393 1.0030874
-14.12071 -1.5737759 1.0143664
-14.07914 -1.5852945 1.0263768
-13.822607 -1.5847247 1.0374416
-12.996908 -1.5326519 0.99623179
-9.5248785 -1.5679559 1.0374713
-9.0067863 -1.5902044 1.0303899
-8.3669024 -1.5562427 1.0178533
-7.544488 -1.576506 1.0070033
-7.3652511 -1.5449815 1.0346718
-6.6375208 -1.5326159 0.96627116
-4.9349041 -1.5400525 0.96947837
-14.79722 -1.4497441 1.0365379
-14.087073 -1.4931272 1.0055605
-6.4807057 -1.4826806 0.98633409
-6.0928998 -1.4639078 1.0383891
-4.611331 -1.4887204 1.0042914
-2.0136433 -1.4452329 0.98954511
-14.528086 -1.4343462 1.036604
-14.393684 -1.4109393 1.0263768
-14.104748 -1.402365 1.031975
-14.068372 -1.4109368 1.0253513
-13.928044 -1.3860085 1.0281485
-13.91633 -1.3866078 1.0253994
-13.619511 -1.3661344 1.031404
-13.560784 -1.3708334 1.0371023
-13.012466 -1.3602949 1.0332998
-13.180645 -1.3414817 1.0185268
-12.859658 -1.3475989 1.0272456
-1.9074907 -1.3318475 0.99767834
-1.5917816 -1.2318289 1.0237725
-19.011065 -1.7312758 1.0584482
-16.260775 -1.6191239 1.0578406
-16.211851 -1.6464353 1.046357
-15.966295 -1.6160722 1.0449457
-15.766775 -1.6110935 1.0550489
-15.74395 -1.6280508 1.0503943
-15.56275 -1.6153903 1.0584662
-15.518413 -1.6299053 1.045256
-15.403238 -1.6117028 1.0719804
-15.357756 -1.6075016 1.0527128
-15.225941 -1.6092746 1.0736984
-15.160233 -1.6387403 1.0565748
-15.070751 -1.6082338 1.0816798
-14.99389 -1.6338131 1.0590771
-14.913209 -1.6445578 1.0534958
-14.84411 -1.6274625 1.0647893
-14.788715 -1.6363958 1.045821
-14.672525 -1.6177275 1.058903
-14.608959 -1.6353736 1.0419141
-14.494925 -1.6139287 1.0539428
-14.44867 -1.6322428 1.0464414
-14.339966 -1.6131282 1.063244
-14.278055 -1.6270545 1.0502374
-14.228153 -1.6460087 1.0460064
-14.029489 -1.633293 1.0484231
-13.939563 -1.6535995 1.0435239
-13.854724 -1.610967 1.0637814
-13.7876 -1.6171901 1.059363
-13.715118 -1.6213839 1.0557945
-13.63358 -1.6188825 1.0497619
-13.553645 -1.6267051 1.0565592
-13.480181 -1.6216707 1.0563042
-13.407338 -1.6124159 1.0561343
-13.327937 -1.6060889 1.0629317
-13.240746 -1.6285163 1.0628829
-13.1569 -1.6261518 1.0465859
-13.080459 -1.6166006 1.060671
-13.018084 -1.6380266 1.060075
-12.916978 -1.621507 1.0483569
-12.85007 -1.6209812 1.0718627
-12.765797 -1.6350117 1.0596482
-12.692134 -1.6227109 1.0639946
-12.593317 -1.6334335 1.057155
-12.51585 -1.6205528 1.0650319
-12.355155 -1.6273613 1.0650969
-12.258183 -1.6466635 1.0661521
-12.202603 -1.6325796 1.0600529
-12.116096 -1.6230087 1.074131
-12.041553 -1.640896 1.0565748
-11.990849 -1.6135514 1.0681448
-11.860869 -1.6331352 1.0527128
-11.827777 -1.6150365 1.060595
-11.684085 -1.646685 1.0485585
-11.650245 -1.6253643 1.0559893
-11.591943 -1.6189508 1.0766301
-11.467274 -1.6466277 1.0503943
-11.415071 -1.6164706 1.0628066
-11.222804 -1.6272918 1.050751
-11.166592 -1.6086663 1.0667155
-10.976329 -1.6353236 1.0483836
-10.908775 -1.6163077 1.0672977
-10.342606 -1.6141144 1.0484741
-10.275757 -1.6001637 1.0657187
-9.9803104 -1.6232741 1.0417275
-9.9123545 -1.6039406 1.0574478
-16.295776 -1.5841476 1.0639201
-16.047987 -1.5848577 1.0675863
-15.81524 -1.5778385 1.0659097
-15.634338 -1.5727814 1.0758045
-15.585504 -1.586347 1.0601175
-15.465261 -1.5603782 1.0830739
-15.431744 -1.5892518 1.0772352
-15.289231 -1.5354497 1.0774008
-15.267779 -1.5733284 1.0798692
-15.132404 -1.5602642 1.0912739
-15.117474 -1.5942507 1.09664
-14.977147 -1.5540208 1.092302
-14.930776 -1.5934449 1.0875171
-14.834821 -1.5537763 1.099619
-14.761556 -1.5852921 1.0812681
-14.672405 -1.5507797 1.0957005
-14.59429 -1.5820032 1.0774971
-14.52347 -1.5605209 1.0856689
-14.442337 -1.5733386 1.0851108
-14.36627 -1.5642698 1.0886693
-14.276158 -1.5694673 1.0802677
-14.197052 -1.5569804 1.0738542
-14.13109 -1.5473404 1.0657516
-14.033979 -1.5578421 1.082885
-13.957194 -1.559714 1.0847096
-13.888001 -1.5732445 1.0786471
-13.800125 -1.5558927 1.0809906
-13.7186 -1.5570892 1.0829952
-13.640663 -1.5521612 1.0928524
-13.560452 -1.5565685 1.0893497
-13.472521 -1.5595453 1.0937343
-13.396585 -1.5675687 1.0915885
-13.318947 -1.5660657 1.0932008
-13.240917 -1.5612245 1.0926676
-13.164199 -1.5633544 1.0990781
-13.08272 -1.5816485 1.1047351
-13.005374 -1.5630006 1.0933213
-12.926794 -1.5693585 1.0790429
-12.839346 -1.5708948 1.104277
-12.758492 -1.5802921 1.0942581
-12.673724 -1.5596564 1.1066513
-12.609324 -1.5714859 1.0938401
-12.517014 -1.5705301 1.0985677
-12.448654 -1.5697396 1.087074
-12.359165 -1.566161 1.1079344
-12.266627 -1.5905305 1.0875171
-12.206033 -1.5591811 1.1018715
-12.08847 -1.5849725 1.0907861
-12.054201 -1.5729554 1.1015183
-11.965513 -1.5779401 1.0857255
-11.88343 -1.5580813 1.0959128
-11.816695 -1.552053 1.084783
-11.707202 -1.5706714 1.0970865
-11.646297 -1.5528671 1.117522
-11.553577 -1.5985403 1.0865378
-11.491094 -1.5620383 1.1025001
-11.372926 -1.5946696 1.0736674
-11.326057 -1.5743157 1.0868556
-11.256604 -1.5490897 1.1078013
-11.133574 -1.5931811 1.0754234
-11.079151 -1.5713089 1.0906622
-11.001114 -1.5591207 1.1160601
-10.843311 -1.5773244 1.0828342
-10.777596 -1.5538577 1.1010729
-10.681488 -1.5692555 1.0720714
-10.518711 -1.5673745 1.0906386
-10.44308 -1.5403829 1.1106504
-10.200641 -1.5677204 1.0835381
-10.111197 -1.5383654 1.1059562
-9.8664179 -1.5760955 1.0668799
-9.8022633 -1.5532542 1.0815521
-9.7492599 -1.5258203 1.0930803
-9.3846292 -1.5380635 1.068278
-8.9145727 -1.5626067 1.0481699
-8.8186474 -1.5341506 1.0667964
-8.116024 -1.5236603 1.0629175
-15.248927 -1.4815814 1.0440792
-15.098484 -1.4771403 1.047857
-14.978817 -1.4849932 1.0663273
-14.6842 -1.4728222 1.0621943
-14.553265 -1.4998574 1.0847909
-14.402585 -1.4710386 1.0680197
-14.394429 -1.4845623 1.0729189
-14.252702 -1.4893237 1.0858727
-14.222416 -1.5098281 1.0884216
-14.116979 -1.5100626 1.0501866
-14.057408 -1.4961826 1.09121
-13.875255 -1.456272 1.0788097
-13.795947 -1.4886192 1.0933405
-13.718326 -1.5124161 1.105672
-13.640033 -1.5144259 1.1023731
-13.56671 -1.5187844 1.1064967
-13.456116 -1.5164207 1.1119949
-13.400753 -1.5119176 1.1154312
-13.315116 -1.489675 1.1115366
-13.240517 -1.4676684 1.1110784
-13.195092 -1.4487331 1.1078713
-13.001041 -1.461067 1.0977471
-12.949754 -1.5191898 1.1062646
-12.820028 -1.448339 1.1139115
-12.756513 -1.5195253 1.1170115
-12.529061 -1.4574413 1.1188743
-11.807499 -1.5025337 1.1125737
-9.6556787 -1.5093811 1.1161366
-9.3011475 -1.5131397 1.086288
-9.2026854 -1.4904988 1.1080896
-8.6999874 -1.5092169 1.090503
-8.5965919 -1.4784846 1.1108229
-8.0038986 -1.4865057 1.0822839
-7.8533654 -1.4545474 1.1090988
-7.2326474 -1.5014049 1.0546188
-4.1378498 -1.4481554 1.05585
-14.397471 -1.4396068 1.0459735
-14.271259 -1.4317869 1.0527357
-14.110536 -1.4146159 1.0438977
-13.946124 -1.4046024 1.050141
-13.916103 -1.4261054 1.0611372
-13.628268 -1.4220086 1.0883876
-13.560342 -1.3835319 1.0499238
-13.487993 -1.3950337 1.066734
-13.171894 -1.4076016 1.0796933
-12.9869 -1.3880291 1.0659767
-12.82668 -1.4151659 1.0884216
-12.682292 -1.3873559 1.0729189
-12.547897 -1.3826339 1.0706875
-12.411644 -1.3721479 1.0666952
-12.243863 -1.380484 1.0859993
-12.222761 -1.4194514 1.1118052
-12.085695 -1.384539 1.095036
-12.065643 -1.4219761 1.1175931
-11.957443 -1.3783776 1.0829808
-11.743479 -1.4106599 1.1162761
-7.2131557 -1.4359881 1.0559057
-6.905827 -1.4162424 1.1048081
-5.8735671 -1.4138856 1.0671278
-5.5797844 -1.3688785 1.106169
-3.9094143 -1.371942 1.0800871
-3.5430346 -1.3042046 1.1197475
-16.495829 -1.6211793 1.1348481
-15.987272 -1.608665 1.1357291
-15.83767 -1.647653 1.1724041
-13.528378 -1.5449739 1.1326128
-13.504045 -1.5344776 1.1243657
-13.429884 -1.5261626 1.1243656
-13.13552 -1.5487437 1.1366297
-13.084967 -1.5297173 1.1382195
-12.903149 -1.5291449 1.1326041
-12.754985 -1.5390205 1.1300761
-12.585075 -1.5282546 1.1294519
-12.443698 -1.5347801 1.1267061
-12.27971 -1.539905 1.1333102
-12.237236 -1.5275526 1.1483636
-12.124075 -1.538216 1.1314348
-12.008843 -1.5687332 1.1200558
-11.957164 -1.5282053 1.1298124
-11.627644 -1.5360485 1.1210252
-11.596725 -1.5262549 1.1315348
-11.409331 -1.5339417 1.1286452
-11.208288 -1.5268683 1.1217653
-10.971615 -1.539524 1.1233168
-10.935421 -1.5224431 1.1334759
-10.395098 -1.5202913 1.1231577
-13.368562 -1.5156475 1.1243656
-13.324655 -1.511683 1.1298637
-13.23345 -1.4896197 1.1326128
-13.047688 -1.5142143 1.1392792
-13.021663 -1.5059232 1.1428119
-12.880792 -1.5108694 1.1292056
-12.839176 -1.5019785 1.1416674
-12.722689 -1.5142312 1.1292595
-12.681918 -1.4893001 1.1336142
-12.567774 -1.5109912 1.1282766
-12.535263 -1.4880292 1.1319703
-12.402434 -1.5186555 1.1387084
-12.369417 -1.48306 1.1384583
-12.212862 -1.4917672 1.1455986
-12.057391 -1.484838 1.1435676
-11.894853 -1.486244 1.1451442
-11.71586 -1.4927341 1.1505234
-11.556592 -1.5069815 1.143796
-11.504356 -1.4793539 1.1595604
-11.363526 -1.5137389 1.1426811
-11.319036 -1.4768133 1.1531392
-11.145112 -1.5103669 1.142711
-11.080973 -1.4767838 1.1613296
-10.892444 -1.5076646 1.1465378
-10.840748 -1.4686091 1.1593094
-10.687573 -1.5030904 1.1240401
-10.63809 -1.4692124 1.1361992
-10.538142 -1.470481 1.1699744
-10.336448 -1.5031209 1.1394173
-10.262939 -1.4703996 1.1588036
-10.044353 -1.5197248 1.1232008
-9.9679031 -1.4818208 1.1415951
-9.8880854 -1.4431803 1.161139
-9.5524178 -1.4708679 1.1402409
-9.1193237 -1.4621758 1.1260996
-8.4665546 -1.4514527 1.1370696
-11.692211 -1.4136068 1.1403418
-11.512374 -1.4330474 1.1455476
-11.333254 -1.4113395 1.1344247
-11.116086 -1.4146068 1.1372807
-10.832397 -1.3985509 1.152343
-10.526312 -1.4204241 1.1679479
-10.193108 -1.415138 1.1750631
-9.8289194 -1.4178193 1.1760844
-9.5203371 -1.411152 1.144433
-9.408309 -1.3935521 1.1727295
-9.0360794 -1.4322299 1.1441095
-8.9112854 -1.4100877 1.1725464
-8.8092613 -1.3805444 1.1952959
-8.4093332 -1.4069965 1.1472296
-8.2718716 -1.3770003 1.1751693
-7.7261052 -1.4153495 1.1314447
-7.5758047 -1.3775704 1.1582597
-6.703681 -1.3745098 1.1363373
-6.3921914 -1.343756 1.1858832
-5.2073975 -1.3269951 1.1560551
-19.210472 -1.8417829 1.2572958
-16.277985 -1.708565 1.2637314
-15.747429 -1.6908212 1.2331277
-16.546387 -1.6158201 1.2486135
-16.427572 -1.6237288 1.2074929
-16.274157 -1.6542729 1.2520949
-16.566088 -1.5755632 1.249581
-16.22772 -1.597733 1.224167
-16.405315 -1.5062665 1.2769195
-16.141068 -1.4977946 1.2637745
-7.3441691 -1.3497823 1.2007169
-6.2607732 -1.2836679 1.2058301
-2.3728476 -1.2967168 1.2488644
-4.8389883 -1.2770039 1.2053989
-16.185324 -1.7953715 1.3424852
-16.214113 -1.7581441 1.3457876
-16.50885 -1.6572882 1.3420843
-16.404636 -1.6459242 1.3001926
-16.280506 -1.6520767 1.3507415
-16.422279 -1.5655816 1.2932107
-16.449699 -1.4783224 1.289849
-16.271818 -1.4681391 1.3127623
-16.21921 -1.4894086 1.2945982
-16.10532 -1.4906729 1.3408513
-16.022434 -1.4073286 1.2874274
-1.3644018 -1.2528206 1.3599137
-1.4944887 -1.1158572 1.3444902
-17.568907 -2.0461578 1.420832
-17.582706 -1.9785247 1.4164544
-17.602531 -1.9137415 1.4145783
-17.586708 -1.8596333 1.4033217
-16.136515 -1.8608665 1.4380652
-16.17643 -1.7769625 1.434562
-16.065155 -1.7836033 1.3890203
-16.385485 -1.7031586 1.4035822
-16.273062 -1.7361861 1.3647773
-16.900507 -1.6734504 1.3845532
-16.09885 -1.6002409 1.3609947
-16.147306 -1.5748612 1.3767591
-16.061951 -1.5221808 1.423576
-17.30942 -1.9783201 1.4536865
-17.555084 -1.8445021 1.5171839
-16.145115 -1.9023254 1.452078
-17.566982 -1.8017081 1.5158329
-16.280338 -1.7738752 1.4783521
-16.022726 -1.8323219 1.4828146
-17.569675 -1.7324183 1.5084023
-16.264767 -1.7183279 1.4590844
-16.124535 -1.7100879 1.4971614
-17.554787 -1.6350189 1.4921902
-16.137829 -1.6408986 1.486517
-17.543961 -1.5633209 1.4807067
-16.138731 -1.5915148 1.4754097
-17.54439 -1.4959915 1.4739516
-17.54571 -1.4072697 1.4658456
-17.558943 -1.3150679 1.4622427
-17.582848 -1.2402916 1.4644946
-17.606153 -1.1578128 1.466521
-17.611076 -1.0717363 1.462468
-17.62904 -0.98810732 1.463819
-17.630322 -0.90211558 1.4597659
-17.644161 -0.83939672 1.4617925
-17.630695 -0.77369308 1.4543619
-17.638691 -0.68910837 1.4543619
-17.629871 -0.60358745 1.4489579
-17.624014 -0.53976768 1.4455804
-17.554592 -1.9639771 1.5327206
-17.56728 -1.8967772 1.527992
-16.120298 -1.8559787 1.5327971
-16.142031 -1.8153727 1.5318714
-16.100204 -1.7273104 1.5952015
-16.010075 -1.7274708 1.5512968
-16.087353 -1.6365676 1.5649559
-17.612049 -1.1772053 1.5949937
-17.624935 -1.0705748 1.5920911
-17.628092 -0.9844231 1.5877371
-17.563807 -0.91060483 1.5587108
-17.62199 -0.85457867 1.5783036
-17.626114 -0.7696681 1.5761266
-17.619171 -0.68390858 1.5703213
-17.612814 -0.62004924 1.5659674
-17.593094 -0.5767439 1.5572596
-17.602695 -0.53526193 1.5601622
-17.550425 -2.0800045 1.6791699
-17.607649 -1.8603698 1.6675594
-17.591614 -1.9022535 1.6675594
-17.613262 -1.7909706 1.6603029
-17.607256 -1.7180851 1.6486923
-16.135433 -1.6952767 1.6039823
-17.610743 -1.6725438 1.6443384
-17.599508 -1.6225611 1.6341791
-17.617149 -1.5590756 1.6334535
-17.613327 -1.4441593 1.619666
-17.590893 -1.4830712 1.6153121
-1.7564287 -1.4778904 1.6278037
-17.62096 -1.4011286 1.6182147
-17.607948 -1.3307592 1.6066042
-1.7136755 -1.3564793 1.6321416
-17.623966 -1.2458163 1.6051528
-1.751214 -1.2284374 1.6256347
-17.635126 -1.1380031 1.600799
-17.635254 -2.3224871 1.7488329
-17.611935 -2.2592986 1.7299658
-17.611416 -2.2077837 1.7212579
-17.606859 -2.1549594 1.7110988
-12.658483 -2.0927539 1.7513106
-17.607225 -1.5293902 1.7578977
-17.598181 -1.5723675 1.7594492
-17.615808 -1.4863596 1.7563461
-17.610184 -1.3945743 1.7439338
-17.595469 -1.4355454 1.7423823
-17.617085 -1.3292701 1.740055
-17.616917 -1.2405288 1.7315215
-17.623837 -1.1540616 1.7268668
-17.612566 -1.0647962 1.7152302
-17.617903 -1.0007575 1.7129029
-17.628141 -0.95919907 1.7144545
-17.59779 -0.91185343 1.6989391
-17.618874 -0.85056704 1.7043695
-17.624802 -0.76599044 1.7028179
-17.632637 -0.68151426 1.7028179
-17.61845 -0.59585577 1.6942844
-17.632923 -0.5331344 1.6989391
-12.086951 -4.0373626 1.8064929
-12.57224 -2.2683728 1.7995917
-14.173685 -2.195086 1.828125
-17.573977 -2.1110864 1.8292687
-14.319866 -2.15253 1.8363721
-12.662817 -2.1290309 1.7778054
-12.357185 -2.1196165 1.7881212
-12.08861 -2.1322734 1.8102446
-11.848935 -2.12321 1.8099437
-17.574076 -2.0368953 1.8168563
-17.584185 -1.8633661 1.7935833
-0.32614517 -1.8952287 1.8284323
-17.604948 -1.8076812 1.7935832
-0.2318697 -1.7644837 1.8392771
-17.602604 -1.7595397 1.7858255
-17.599695 -1.7116081 1.7780677
-17.610231 -1.6684966 1.7765162
-17.588676 -1.6152829 1.7610008
-0.39927101 -1.6071357 1.8143342
-0.40350342 -1.328353 1.8105384
-0.27137566 -1.1979088 1.8273479
-0.25531292 -1.058707 1.8284323
-17.601927 -0.9060241 1.831262
-0.27237892 -0.91791368 1.8251789
-17.616312 -0.82251912 1.8329133
-17.626802 -0.75977635 1.8345646
-0.27112389 -0.77819169 1.8246367
-17.614527 -0.67377388 1.8254826
-17.624067 -0.5897879 1.8271339
-0.2990675 -0.63790548 1.8202988
-17.621933 -0.5263055 1.824657
-12.117152 -3.9512265 1.8969849
-12.221833 -3.4821239 1.9122903
-12.431799 -2.6787832 1.8922138
-17.613186 -2.2556 1.8696088
-14.242307 -2.2400055 1.8886043
-17.589411 -2.1933672 1.8494387
-14.286069 -2.2378869 1.900517
-14.215231 -2.2245419 1.8666118
-13.793357 -2.2210729 1.9089522
-13.714812 -2.2265236 1.9080025
-13.645606 -2.2156126 1.893994
-13.567728 -2.1955342 1.8733374
-13.489756 -2.2037706 1.8847342
-13.410446 -2.2156887 1.9032539
-12.893465 -2.1780307 1.8542411
-12.847984 -2.2085011 1.8968515
-12.572044 -2.2060089 1.8758365
-12.548227 -2.2029607 1.8837849
-11.989911 -2.1891899 1.8935305
-10.990185 -2.1733427 1.9009334
-10.739385 -2.1829591 1.8986312
-17.409418 -2.1029429 1.9006155
-11.565308 -2.1375213 1.8430872
-11.333081 -2.1486716 1.8451235
-17.580421 -1.7916781 1.9187795
-17.595938 -1.7033271 1.9121745
-17.607973 -1.6376011 1.9080462
-17.607868 -1.545598 1.8956617
-17.608681 -1.4775453 1.8874053
-17.602684 -1.4307554 1.879149
-17.592619 -1.3833048 1.8692414
-17.624439 -1.3466938 1.879149
-17.599201 -1.2961073 1.8626362
-17.612444 -1.2549789 1.8642875
-17.596766 -1.2075622 1.8527286
-17.623974 -1.1475365 1.8593338
-17.614561 -1.0802935 1.849426
-17.620089 -1.0162513 1.8469491
-17.617504 -0.95113707 1.8411697
-17.632824 -0.86733186 1.842821
-11.930774 -4.6535234 1.9425312
-12.222054 -3.3792298 1.9870598
-12.454722 -2.5594647 1.9278247
-14.33348 -2.2439649 1.9215931
-13.963143 -2.2718248 1.9849305
-13.888341 -2.2569568 1.9573883
-13.826679 -2.2512357 1.9431423
-13.337217 -2.2437747 1.9402932
-13.23528 -2.2439678 1.9573883
-13.191576 -2.2551301 1.9773326
-12.711181 -2.2534776 1.9875705
-12.488206 -2.2617888 1.9553211
-12.452142 -2.2543297 1.965919
-12.194473 -2.264617 1.9640019
-12.132393 -2.2571619 1.9899168
-11.87733 -2.2497747 1.9866148
-11.669595 -2.2643008 1.974484
-11.373713 -2.26491 1.9983656
-11.159863 -2.2448113 1.9698522
-10.569409 -2.2474029 1.9981483
-10.281045 -2.2461715 1.9955981
-17.581879 -2.2330756 1.9963894
-13.775049 -2.2369728 1.9231981
-13.75505 -2.2359045 1.9203489
-13.308138 -2.2259424 1.9268614
-13.237587 -2.2314391 1.944567
-12.818502 -2.2246618 1.9215931
-12.761225 -2.235492 1.9525199
-12.431878 -2.2208393 1.9500221
-11.842358 -2.2348413 1.9964131
-9.2963562 -2.1945438 1.970459
-8.8855333 -2.1928349 1.9708838
-8.4184771 -2.1848738 1.9724742
-7.8436027 -2.1826739 1.9886645
-5.7880015 -2.1162415 1.9536121
-17.64127 -2.0082684 1.9798766
-17.570406 -1.9308193 1.9369435
-17.613413 -1.8753847 1.9460255
-17.619368 -1.758351 1.9303384
-17.605534 -1.1707618 1.9915714
-17.599789 -1.1260306 1.984565
-17.629128 -1.0662656 1.9933231
-17.62219 -1.0000112 1.984565
-17.60033 -0.95356476 1.9705522
-17.599308 -0.91064322 1.967049
-17.623631 -0.84969568 1.9749312
-17.635002 -0.76549661 1.975807
-17.623104 -0.67933625 1.9661732
-17.636299 -0.59542763 1.9696764
-17.627136 -0.53146303 1.9635458
-12.298538 -3.0302548 2.027621
-17.58069 -2.3355675 2.0162046
-17.352381 -2.3772125 2.0774
-17.607819 -2.2969563 2.0195072
-14.326123 -2.2515271 2.0656571
-14.245858 -2.280266 2.0656571
-14.201385 -2.2807858 2.0523612
-14.123007 -2.2748151 2.0243442
-14.040911 -2.2902253 2.0193582
-13.144866 -2.2752254 2.007724
-13.071776 -2.2675669 2.0186458
-13.001702 -2.2474291 2.0191205
-12.929314 -2.2647622 2.0590091
-12.863201 -2.2594578 2.077054
-12.669956 -2.2627668 2.0123122
-12.601956 -2.2729788 2.0498827
-12.355461 -2.275209 2.0268574
-12.28457 -2.2723734 2.0595343
-12.231276 -2.2632248 2.0798469
-12.097569 -2.2469573 2.0009625
-12.026745 -2.2530911 2.0417464
-11.978064 -2.2503991 2.0659618
-11.792186 -2.2483916 2.0307074
-11.73487 -2.2478881 2.0613272
-11.619471 -2.2732925 2.0050414
-11.572998 -2.2574093 2.0214956
-11.516989 -2.2493861 2.0473518
-11.322317 -2.2476382 2.0174942
-11.083761 -2.262007 2.0150125
-11.014639 -2.2511444 2.0461946
-10.9425 -2.2406824 2.0795274
-10.773567 -2.2520914 2.0342243
-10.434411 -2.2408166 2.0605905
-10.193235 -2.2492979 2.0363245
-9.938673 -2.2494729 2.0090873
-14.349942 -2.1968846 2.0229194
-14.297404 -2.2353284 2.0400145
-12.569746 -2.237268 2.0343046
-12.552877 -2.2213049 2.0288064
-12.073908 -2.235913 2.0060604
-11.955517 -2.2166131 2.0570402
-11.509284 -2.2166917 2.035599
-11.29922 -2.2064953 2.011868
-10.707018 -2.2387915 2.0629332
-10.519918 -2.2337813 2.0176616
-10.142383 -2.2304595 2.0548365
-9.8676357 -2.236989 2.037113
-9.7771063 -2.2327547 2.0756483
-9.5812263 -2.2316763 2.0112507
-9.4954319 -2.2196944 2.0442762
-9.1138992 -2.2173839 2.0449331
-8.6782694 -2.2146771 2.0492549
-8.1751442 -2.2073438 2.0575879
-7.5849986 -2.1958604 2.071213
-7.148982 -2.1766701 2.0118744
-14.215526 -2.1285996 2.0541201
-12.305892 -2.1033635 2.0617952
-12.086779 -2.0919907 2.0401046
-11.843736 -2.107491 2.0544913
-11.823226 -2.091161 2.0570402
-11.352938 -2.1157258 2.0755587
-6.4340429 -2.1340172 2.0048537
-5.3596249 -2.1226017 2.0559847
-17.526505 -2.0150855 2.0774
-17.5138 -1.9615526 2.0616355
-17.520443 -1.9164773 2.0563807
-17.516512 -1.8675426 2.045871
-17.533072 -1.803306 2.0423679
-17.537159 -1.7117944 2.0292308
-17.542734 -1.6447798 2.0213487
-17.548796 -1.5784017 2.0143423
-17.568481 -1.4939132 2.0117149
-17.595028 -1.411531 2.0134664
-17.602266 -1.3019987 2.0038326
-17.585098 -1.3421193 2.0003295
-17.611403 -1.237847 2.0012052
-17.459408 -0.83483756 2.0307708
-17.463427 -0.75334561 2.0279942
-17.486931 -0.67362487 2.0363245
-17.499931 -0.59262979 2.0400269
-17.503315 -0.53134489 2.0400269
-14.353198 -2.262104 2.0856016
-14.285442 -2.2963281 2.0941491
-14.036578 -2.2421436 2.1194942
-13.955806 -2.2579882 2.1183708
-13.879175 -2.2664833 2.1138415
-13.797333 -2.2630498 2.0990953
-13.716878 -2.2669382 2.0961463
-13.636511 -2.2687998 2.0946717
-13.555999 -2.2760751 2.102782
-13.47543 -2.2718687 2.1020448
-13.394596 -2.2683144 2.1057312
-13.315494 -2.2513571 2.0983584
-13.232834 -2.2550275 2.1175282
-13.150873 -2.2484944 2.1293249
-12.843051 -2.2715018 2.0960484
-12.756249 -2.2629409 2.1219287
-12.703738 -2.2460566 2.1283393
-12.492869 -2.2808151 2.1057801
-12.462667 -2.263145 2.1057801
-12.372857 -2.2519665 2.1415179
-12.183596 -2.2655592 2.1063418
-12.148205 -2.2502446 2.1142902
-11.874566 -2.2475338 2.1207652
-11.651372 -2.2514477 2.1090941
-11.410439 -2.2438824 2.1025906
-11.189074 -2.2540343 2.0906324
-10.878551 -2.243571 2.1139352
-10.357474 -2.2409854 2.0976655
-14.179461 -2.1779871 2.0929513
-14.118358 -2.2202592 2.1182656
-14.048687 -2.2348499 2.114579
-13.071919 -2.2273626 2.1285877
-12.996951 -2.2271874 2.1519353
-12.668828 -2.2175767 2.117892
-12.620037 -2.193027 2.1183672
-12.428198 -2.2302561 2.0961585
-12.346407 -2.2170618 2.1277726
-12.311049 -2.1751761 2.1140273
-12.109428 -2.2185941 2.1134071
-12.069309 -2.1755331 2.1063418
-11.84918 -2.2157385 2.1156673
-11.817959 -2.190186 2.1182163
-11.610299 -2.2315669 2.1213419
-11.578665 -2.2021685 2.1237917
-11.351589 -2.2041891 2.116694
-11.156185 -2.238795 2.1018846
-11.093569 -2.2148607 2.1260767
-10.843584 -2.2043304 2.1182363
-10.618164 -2.2305965 2.1049709
-10.551549 -2.1846762 2.1244521
-10.299981 -2.2131958 2.1178291
-10.031608 -2.2185793 2.1029677
-9.9741898 -2.1767652 2.1196287
-9.7024765 -2.219053 2.1054256
-9.6344242 -2.1755557 2.1264448
-9.3927994 -2.2134964 2.0855582
-9.2932034 -2.2039087 2.1251886
-9.0057125 -2.206213 2.0852733
-8.9110079 -2.1875963 2.1194072
-8.5575333 -2.2002726 2.0913429
-8.4576454 -2.176055 2.1247232
-8.0273075 -2.1929917 2.1062241
-7.4275374 -2.1736808 2.1187408
-6.8751125 -2.1783721 2.0911999
-17.620911 -2.1050215 2.1369543
-14.254963 -2.1504722 2.0909853
-12.602735 -2.1565437 2.0941491
-12.028843 -2.1208816 2.0930943
-11.575827 -2.1471457 2.0968461
-10.817587 -2.1589921 2.1160858
-10.259767 -2.1598268 2.1230326
-9.274025 -2.1587074 2.1251886
-8.8506641 -2.1541035 2.1380255
-7.9509273 -2.1528494 2.1278403
-6.674675 -2.1552033 2.1475325
-6.0927825 -2.1357028 2.0949831
-5.890027 -2.0988324 2.1463358
-4.9798012 -2.1100676 2.1460347
-3.7997637 -2.1327722 2.1572995
-17.527615 -1.5104299 2.1381409
-17.508854 -1.4605163 2.12148
-17.512058 -1.395306 2.1140752
-17.520893 -1.2884288 2.1048191
-17.517731 -1.3311584 2.1085215
-17.520134 -1.2449498 2.0992656
-17.608952 -1.1336178 2.1325872
-17.558853 -1.1669574 2.1103728
-17.591034 -1.0652714 2.1168518
-17.582592 -0.99931872 2.1066704
-17.570169 -0.94056255 2.0955632
-17.363525 -2.7550247 2.1754897
-17.538652 -2.640511 2.2192798
-17.50613 -2.5671864 2.1877508
-17.535425 -2.5296459 2.1912541
-17.334858 -2.4253812 2.230701
-17.337683 -2.3760188 2.2195938
-13.593396 -2.242058 2.229316
-12.856232 -2.2468989 2.2236993
-11.421085 -2.2441018 2.2364726
-13.868827 -2.2149599 2.2201669
-13.816836 -2.2243693 2.2232168
-13.476132 -2.215461 2.2028854
-13.408807 -2.1984317 2.1896698
-13.319605 -2.2042172 2.2097979
-13.22832 -2.1927197 2.2150841
-13.182535 -2.1874781 2.2201669
-12.920619 -2.2255502 2.1772494
-12.812609 -2.2130551 2.2074788
-9.0831566 -2.1831822 2.2094035
-8.1638241 -2.2165208 2.2379255
-7.160253 -2.1795511 2.2037904
-17.396393 -2.1090069 2.1844208
-17.339348 -2.1303732 2.1622064
-13.249842 -2.1514096 2.1622229
-9.0303078 -2.1491284 2.2259164
-6.5706534 -2.1039159 2.173974
-17.482397 -2.0027802 2.2029328
-17.415367 -2.0456119 2.1797929
-4.6794996 -2.0742767 2.2161791
-3.5504293 -2.0696094 2.2080994
-17.545776 -1.9329927 2.2195938
-17.519154 -1.9701625 2.2140403
-4.6007662 -1.9919291 2.2313454
-17.472916 -1.8568726 2.1696112
-0.28703213 -1.902137 2.1845214
-17.534246 -1.8101163 2.1909001
-17.569027 -1.7290354 2.1936769
-0.30291462 -1.7593131 2.179374
-17.617184 -1.6754454 2.2084866
-0.29281616 -1.6196171 2.1787305
-0.28811741 -1.4795289 2.1774435
-0.29276848 -1.3388979 2.1748698
-0.28708267 -1.1992424 2.1742263
-0.29863071 -1.058736 2.1710091
-17.548389 -1.0001128 2.2362089
-0.28404999 -0.91974449 2.1722958
-0.31827164 -0.77899742 2.1658614
-0.30661392 -0.64006323 2.1671484
-0.30035782 -0.50088555 2.1677918
-17.35001 -2.5907798 2.2806835
-17.119452 -2.410723 2.2791378
-17.092333 -2.3460331 2.2479169
-13.915365 -2.2549665 2.2750611
-13.783054 -2.2513702 2.2506635
-13.723784 -2.2631741 2.2590504
-13.643595 -2.2666788 2.2590504
-13.553139 -2.2655842 2.2577794
-13.513231 -2.260807 2.2537134
-12.830332 -2.2540379 2.2413948
-12.491244 -2.3097186 2.2850442
-10.849829 -2.29723 2.2931695
-10.608064 -2.2509384 2.2601688
-10.306215 -2.2624135 2.274148
-9.6178417 -2.3042879 2.3158565
-8.4410439 -2.248126 2.31335
-13.143924 -2.2209036 2.2689617
-13.077685 -2.1957815 2.2604229
-13.002022 -2.1686451 2.2557461
-7.5545144 -2.2098346 2.2696962
-17.301598 -2.1195369 2.2927971
-17.043768 -2.0941002 2.3049073
-13.466275 -2.1461623 2.3033578
-13.402842 -2.1167021 2.2734237
-13.325245 -2.133112 2.3072965
-13.24192 -2.1164031 2.3049331
-12.962931 -2.1590564 2.2598126
-12.914684 -2.1446583 2.2636247
-12.86518 -2.1328077 2.2720115
-8.8611622 -2.1303391 2.2944441
-17.290787 -2.0437117 2.2693813
-17.067154 -2.0156491 2.296705
-17.018723 -2.0366695 2.2761986
-16.802025 -2.0218439 2.3031788
-16.787315 -2.056875 2.3053291
-13.251923 -2.0669923 2.2403383
-17.414188 -1.9808244 2.3181643
-17.304216 -1.9798932 2.2615762
-17.109297 -1.9908869 2.3131099
-16.816351 -1.9866923 2.3010283
-4.3657522 -1.9350752 2.2853754
-17.573763 -1.2200531 2.273284
-17.506584 -1.2483164 2.2401116
-17.568085 -1.1535897 2.2625518
-17.59479 -1.0795773 2.2693813
-17.330551 -2.9101028 2.3621366
-17.441961 -2.8127089 2.3824997
-17.301208 -2.8333607 2.3269637
-17.440495 -2.7554028 2.365839
-17.218475 -2.5979452 2.3806064
-17.223452 -2.522887 2.3610933
-17.075842 -2.3454697 2.3930845
-16.995548 -2.3469379 2.352072
-14.049565 -2.3286476 2.390949
-13.974236 -2.3497109 2.3970482
-12.727268 -2.3278134 2.3593628
-12.692087 -2.3505549 2.3977025
-12.444032 -2.3441503 2.3391788
-12.154233 -2.3523946 2.3367012
-9.1193275 -2.3280807 2.3856819
-17.363005 -2.2632942 2.3591421
-13.943836 -2.2999909 2.333005
-12.260889 -2.2912052 2.3933132
